# .PCD v0.7 - Point Cloud Data file format
VERSION 0.7
FIELDS x y z rgba
SIZE 4 4 4 4
TYPE F F F U
COUNT 1 1 1 1
WIDTH 1045
HEIGHT 1
VIEWPOINT 0 0 0 1 0 0 0
POINTS 1045
DATA ascii
0.2179359 -0.028281758 1.7720001 4287513605
0.22126317 -0.028281758 1.7720001 4287578625
0.22459044 -0.028281758 1.7720001 4287644418
0.2279177 -0.028281758 1.7720001 4287448067
0.23124497 -0.028281758 1.7720001 4287252482
0.23457223 -0.028281758 1.7720001 4287382529
0.2378995 -0.028281758 1.7720001 4287512577
0.24122676 -0.028281758 1.7720001 4287642113
0.24455403 -0.028281758 1.7720001 4287772673
0.24788129 -0.028281758 1.7720001 4287511298
0.25120857 -0.028281758 1.7720001 4287249922
0.25453582 -0.028281758 1.7720001 4287315202
0.25786307 -0.028281758 1.7720001 4287446017
0.26119035 -0.028281758 1.7720001 4287513089
0.26451764 -0.028281758 1.7720001 4287579137
0.26784492 -0.028281758 1.7720001 4287578113
0.27117214 -0.028281758 1.7720001 4287577857
0.27310523 -0.028138116 1.7630001 4287643393
0.27641562 -0.028138116 1.7630001 4287708929
0.27972597 -0.028138116 1.7630001 4287905793
0.28303635 -0.028138116 1.7630001 4288103681
0.2863467 -0.028138116 1.7630001 4288168961
0.28965709 -0.028138116 1.7630001 4288299781
0.29296744 -0.028138116 1.7630001 4288366346
0.29627782 -0.028138116 1.7630001 4288432389
0.29958817 -0.028138116 1.7630001 4288300545
0.30289856 -0.028138116 1.7630001 4288235265
0.30620891 -0.028138116 1.7630001 4288039169
0.30951929 -0.028138116 1.7630001 4287906817
0.31442663 -0.028281758 1.7720001 4287906561
0.31775388 -0.028281758 1.7720001 4287839489
0.32108113 -0.028281758 1.7720001 4287905537
0.32440841 -0.028281758 1.7720001 4288036359
0.32773566 -0.028281758 1.7720001 4287906573
0.33106294 -0.028281758 1.7720001 4287840519
0.33608857 -0.028425403 1.7810001 4287776001
0.33943275 -0.028425403 1.7810001 4287711489
0.34277692 -0.028425403 1.7810001 4287645697
0.34612107 -0.028425403 1.7810001 4287514889
0.34946525 -0.028425403 1.7810001 4287646993
0.3528094 -0.028425403 1.7810001 4287779337
0.35615358 -0.028425403 1.7810001 4286267394
0.36131439 -0.028569046 1.7900001 4284820487
0.36671275 -0.028728647 1.8000001 4284754700
0.3700926 -0.028728647 1.8000001 4284754950
0.37347242 -0.028728647 1.8000001 4284689153
0.37685227 -0.028728647 1.8000001 4284623617
0.38213328 -0.028872292 1.8090001 4284492801
0.38553002 -0.028872292 1.8090001 4284361218
0.39107671 -0.029031897 1.8190001 4284097539
0.39449224 -0.029031897 1.8190001 4283834371
0.39987651 -0.029175539 1.8280001 4283506436
0.40551522 -0.029335141 1.8380001 4283178247
0.40896639 -0.029335141 1.8380001 4283374858
0.41466141 -0.029494746 1.848 4283637008
0.41813138 -0.029494746 1.848 4283703830
0.42160138 -0.029494746 1.848 4283836174
0.4273715 -0.029654348 1.858 4283837191
0.46671095 -0.029494746 1.848 4280291074
0.47018096 -0.029494746 1.848 4280750850
0.47365093 -0.029494746 1.848 4280946690
0.47712088 -0.029494746 1.848 4281143558
0.48059088 -0.029494746 1.848 4281340939
0.48144144 -0.029335141 1.8380001 4281604887
0.48489267 -0.029335141 1.8380001 4281540643
0.48834381 -0.029335141 1.8380001 4281476626
0.49179503 -0.029335141 1.8380001 4281804289
0.49524626 -0.029335141 1.8380001 4282133789
0.4986974 -0.029335141 1.8380001 4281871930
0.50214863 -0.029335141 1.8380001 4281675310
0.5055998 -0.029335141 1.8380001 4281347106
0.50905102 -0.029335141 1.8380001 4281085723
0.51250219 -0.029335141 1.8380001 4281215765
0.51595336 -0.029335141 1.8380001 4281346065
0.51940459 -0.029335141 1.8380001 4281346062
0.52285576 -0.029335141 1.8380001 4281346061
0.52630699 -0.029335141 1.8380001 4280819213
0.52975816 -0.029335141 1.8380001 4280288522
0.53320932 -0.029335141 1.8380001 4282785800
0.53958035 -0.029494746 1.848 4285299253
0.54305029 -0.029494746 1.848 4285559395
0.54652029 -0.029494746 1.848 4285819491
-0.34702519 -0.028137177 1.9980001 4288720024
-0.34327358 -0.028137177 1.9980001 4288916636
0.020396404 -0.027813276 1.9750001 4280487696
0.024104839 -0.027813276 1.9750001 4280422688
0.027968185 -0.027968185 1.9860001 4280422160
0.031521711 -0.027813276 1.9750001 4280421889
0.035230149 -0.027813276 1.9750001 4280422657
0.038938586 -0.027813276 1.9750001 4280358145
0.042647023 -0.027813276 1.9750001 4280358663
0.04635546 -0.027813276 1.9750001 4280620301
0.050063897 -0.027813276 1.9750001 4280950024
0.053472839 -0.027658366 1.9640001 4281147907
0.057160623 -0.027658366 1.9640001 4281409289
0.060848407 -0.027658366 1.9640001 4281147151
0.064536192 -0.027658366 1.9640001 4280884232
0.068223976 -0.027658366 1.9640001 4280490753
0.071911752 -0.027658366 1.9640001 4280161537
0.075599529 -0.027658366 1.9640001 4280030209
0.07973139 -0.027813276 1.9750001 4279897345
0.083439827 -0.027813276 1.9750001 4280159233
0.087148264 -0.027813276 1.9750001 4280486913
0.090856701 -0.027813276 1.9750001 4280880641
0.094565138 -0.027813276 1.9750001 4281272065
0.098273575 -0.027813276 1.9750001 4281337601
0.12008105 -0.026883818 1.909 4283436801
0.12366557 -0.026883818 1.909 4283699201
0.12725008 -0.026883818 1.909 4283963393
0.13083459 -0.026883818 1.909 4284030465
0.13371496 -0.026742991 1.899 4284096769
0.13728069 -0.026742991 1.899 4283770369
0.14003058 -0.026588082 1.8880001 4283440641
0.14281519 -0.026447257 1.8780001 4283767553
0.14556225 -0.026306428 1.868 4284160769
0.14906976 -0.026306428 1.868 4284490241
0.15176049 -0.026165603 1.858 4284819201
0.15441367 -0.026024776 1.848 4285410305
0.15788363 -0.026024776 1.848 4286065922
0.1613536 -0.026024776 1.848 4285607939
0.16393167 -0.02588395 1.8380001 4285214210
0.1664722 -0.025743123 1.8280001 4285148161
0.1699046 -0.025743123 1.8280001 4285083145
0.17248362 -0.025616379 1.8190001 4285149457
0.17493212 -0.025475552 1.8090001 4285213961
0.17832886 -0.025475552 1.8090001 4285477121
0.18172561 -0.025475552 1.8090001 4285805057
0.18512236 -0.025475552 1.8090001 4286068225
0.18851909 -0.025475552 1.8090001 4286330625
0.19096102 -0.025348809 1.8000001 4286461185
0.19434087 -0.025348809 1.8000001 4286658561
0.19772069 -0.025348809 1.8000001 4286725121
0.20110054 -0.025348809 1.8000001 4286790408
0.20334439 -0.02520798 1.7900001 4286790671
0.20670545 -0.02520798 1.7900001 4286789384
0.21006651 -0.02520798 1.7900001 4286921473
0.21235448 -0.025081238 1.7810001 4287053315
0.21569864 -0.025081238 1.7810001 4287318021
0.2179359 -0.024954494 1.7720001 4287579651
0.22126317 -0.024954494 1.7720001 4287645953
0.22459044 -0.024954494 1.7720001 4287710470
0.2279177 -0.024954494 1.7720001 4287383564
0.23124497 -0.024954494 1.7720001 4287055110
0.23457223 -0.024954494 1.7720001 4287251969
0.2378995 -0.024954494 1.7720001 4287446785
0.24122676 -0.024954494 1.7720001 4287444993
0.24455403 -0.024954494 1.7720001 4287445512
0.24788129 -0.024954494 1.7720001 4287249424
0.25120857 -0.024954494 1.7720001 4287053065
0.25453582 -0.024954494 1.7720001 4287183362
0.25786307 -0.024954494 1.7720001 4287380993
0.26119035 -0.024954494 1.7720001 4287448577
0.26451764 -0.024954494 1.7720001 4287513092
0.26784492 -0.024954494 1.7720001 4287118856
0.27117214 -0.024954494 1.7720001 4286790404
0.27310523 -0.024827749 1.7630001 4287248385
0.27641562 -0.024827749 1.7630001 4287708423
0.27972597 -0.024827749 1.7630001 4287905805
0.28303635 -0.024827749 1.7630001 4288169223
0.2863467 -0.024827749 1.7630001 4288235777
0.28965709 -0.024827749 1.7630001 4288366851
0.29296744 -0.024827749 1.7630001 4288236805
0.29627782 -0.024827749 1.7630001 4288170499
0.29958817 -0.024827749 1.7630001 4288104193
0.30289856 -0.024827749 1.7630001 4288104961
0.30620891 -0.024827749 1.7630001 4287909377
0.30951929 -0.024827749 1.7630001 4287710721
0.31442663 -0.024954494 1.7720001 4287644161
0.31775388 -0.024954494 1.7720001 4287578113
0.32108113 -0.024954494 1.7720001 4287578625
0.32440841 -0.024954494 1.7720001 4287644420
0.32773566 -0.024954494 1.7720001 4287712263
0.33106294 -0.024954494 1.7720001 4287775492
0.33608857 -0.025081238 1.7810001 4287644417
0.33943275 -0.025081238 1.7810001 4287579139
0.34277692 -0.025081238 1.7810001 4287579910
0.34612107 -0.025081238 1.7810001 4287579673
0.34946525 -0.025081238 1.7810001 4287975468
0.3528094 -0.025081238 1.7810001 4288368919
0.35615358 -0.025081238 1.7810001 4286666498
0.36131439 -0.02520798 1.7900001 4284954376
0.36671275 -0.025348809 1.8000001 4284754959
0.3700926 -0.025348809 1.8000001 4284623368
0.37533981 -0.025475552 1.8090001 4284491521
0.37873656 -0.025475552 1.8090001 4284425729
0.38213328 -0.025475552 1.8090001 4284295682
0.38553002 -0.025475552 1.8090001 4284163074
0.39107671 -0.025616379 1.8190001 4283898626
0.39449224 -0.025616379 1.8190001 4283701506
0.39987651 -0.025743123 1.8280001 4283438082
0.40551522 -0.02588395 1.8380001 4283242501
0.41119146 -0.026024776 1.848 4283439624
0.41466141 -0.026024776 1.848 4283637258
0.41813138 -0.026024776 1.848 4283769868
0.42160138 -0.026024776 1.848 4283901448
0.46574771 -0.026165603 1.858 4280552451
0.46671095 -0.026024776 1.848 4280684033
0.47018096 -0.026024776 1.848 4280880641
0.47365093 -0.026024776 1.848 4280945665
0.47712088 -0.026024776 1.848 4281078275
0.48059088 -0.026024776 1.848 4281341702
0.48144144 -0.02588395 1.8380001 4281670670
0.48489267 -0.02588395 1.8380001 4281476374
0.48834381 -0.02588395 1.8380001 4281345037
0.49179503 -0.02588395 1.8380001 4281674245
0.49524626 -0.02588395 1.8380001 4282067738
0.4986974 -0.02588395 1.8380001 4281806896
0.50214863 -0.02588395 1.8380001 4281609259
0.5055998 -0.02588395 1.8380001 4281543206
0.50905102 -0.02588395 1.8380001 4281543200
0.51250219 -0.02588395 1.8380001 4281543450
0.51595336 -0.02588395 1.8380001 4281542677
0.51940459 -0.02588395 1.8380001 4281411857
0.52285576 -0.02588395 1.8380001 4281345804
0.52630699 -0.02588395 1.8380001 4280821511
0.52975816 -0.02588395 1.8380001 4280291077
0.53320932 -0.02588395 1.8380001 4282908932
0.53958035 -0.026024776 1.848 4285553455
0.54305029 -0.026024776 1.848 4285822554
0.54652029 -0.026024776 1.848 4286082395
-0.35828006 -0.024385555 1.9980001 4288586909
-0.35452846 -0.024385555 1.9980001 4289570968
-0.35077682 -0.024385555 1.9980001 4289178259
0.020396404 -0.024104839 1.9750001 4280422657
0.024104839 -0.024104839 1.9750001 4280422401
0.027968185 -0.024239093 1.9860001 4280422145
0.031697277 -0.024239093 1.9860001 4280487681
0.035230149 -0.024104839 1.9750001 4280554753
0.038938586 -0.024104839 1.9750001 4280620545
0.042647023 -0.024104839 1.9750001 4280687627
0.04635546 -0.024104839 1.9750001 4280884757
0.050063897 -0.024104839 1.9750001 4281082379
0.053472839 -0.023970583 1.9640001 4281213186
0.057160623 -0.023970583 1.9640001 4281343491
0.060848407 -0.023970583 1.9640001 4281080836
0.064536192 -0.023970583 1.9640001 4280883970
0.068223976 -0.023970583 1.9640001 4280488961
0.071911752 -0.023970583 1.9640001 4280160513
0.075599529 -0.023970583 1.9640001 4280028929
0.07973139 -0.024104839 1.9750001 4279962369
0.083439827 -0.024104839 1.9750001 4280289793
0.087148264 -0.024104839 1.9750001 4280617473
0.090350665 -0.023970583 1.9640001 4280879105
0.094038449 -0.023970583 1.9640001 4281206017
0.11649654 -0.02329931 1.909 4283108353
0.12008105 -0.02329931 1.909 4283501313
0.12366557 -0.02329931 1.909 4283896065
0.12725008 -0.02329931 1.909 4284291585
0.13083459 -0.02329931 1.909 4284162305
0.13371496 -0.023177259 1.899 4284032769
0.13648549 -0.023043007 1.8880001 4283835649
0.13928889 -0.022920955 1.8780001 4283571969
0.14281519 -0.022920955 1.8780001 4283898625
0.14556225 -0.022798905 1.868 4284225281
0.14906976 -0.022798905 1.868 4284621569
0.15176049 -0.022676855 1.858 4284951553
0.15441367 -0.022554806 1.848 4285279490
0.15788363 -0.022554806 1.848 4285607425
0.1613536 -0.022554806 1.848 4285213953
0.16393167 -0.022432756 1.8380001 4284885505
0.1664722 -0.022310706 1.8280001 4284885505
0.1690681 -0.022200862 1.8190001 4284951297
0.17248362 -0.022200862 1.8190001 4285081601
0.17493212 -0.022078812 1.8090001 4285212417
0.17832886 -0.022078812 1.8090001 4285541889
0.18172561 -0.022078812 1.8090001 4285935873
0.18512236 -0.022078812 1.8090001 4286133761
0.18851909 -0.022078812 1.8090001 4286331393
0.19096102 -0.021968966 1.8000001 4286658817
0.19434087 -0.021968966 1.8000001 4286921729
0.19772069 -0.021968966 1.8000001 4286855937
0.20110054 -0.021968966 1.8000001 4286791438
0.20448038 -0.021968966 1.8000001 4286790172
0.20670545 -0.021846917 1.7900001 4286788366
0.21006651 -0.021846917 1.7900001 4286920193
0.21342757 -0.021846917 1.7900001 4287051521
0.21569864 -0.021737073 1.7810001 4287315457
0.21904281 -0.021737073 1.7810001 4287513857
0.22126317 -0.021627227 1.7720001 4287710209
0.22459044 -0.021627227 1.7720001 4287971595
0.2279177 -0.021627227 1.7720001 4287644182
0.23124497 -0.021627227 1.7720001 4287316235
0.23457223 -0.021627227 1.7720001 4287382017
0.2378995 -0.021627227 1.7720001 4287512833
0.24122676 -0.021627227 1.7720001 4287511809
0.24455403 -0.021627227 1.7720001 4287511823
0.24788129 -0.021627227 1.7720001 4287381022
0.25120857 -0.021627227 1.7720001 4287316240
0.25453582 -0.021627227 1.7720001 4287315203
0.25786307 -0.021627227 1.7720001 4287315202
0.26119035 -0.021627227 1.7720001 4287446785
0.26451764 -0.021627227 1.7720001 4287512840
0.26784492 -0.021627227 1.7720001 4287381008
0.27117214 -0.021627227 1.7720001 4287248904
0.27449942 -0.021627227 1.7720001 4287576065
0.2778267 -0.021627227 1.7720001 4287905037
0.27972597 -0.021517385 1.7630001 4288037401
0.28303635 -0.021517385 1.7630001 4288169485
0.2863467 -0.021517385 1.7630001 4288236033
0.28965709 -0.021517385 1.7630001 4288367873
0.29296744 -0.021517385 1.7630001 4288171009
0.29627782 -0.021517385 1.7630001 4288040193
0.29958817 -0.021517385 1.7630001 4287450114
0.30289856 -0.021517385 1.7630001 4286860545
0.30777207 -0.021627227 1.7720001 4286988545
0.31109935 -0.021627227 1.7720001 4287186689
0.31442663 -0.021627227 1.7720001 4287184897
0.31775388 -0.021627227 1.7720001 4287250945
0.32108113 -0.021627227 1.7720001 4287316225
0.32440841 -0.021627227 1.7720001 4287447553
0.32773566 -0.021627227 1.7720001 4287513090
0.33106294 -0.021627227 1.7720001 4287643137
0.33608857 -0.021737073 1.7810001 4287512577
0.33943275 -0.021737073 1.7810001 4287447046
0.34277692 -0.021737073 1.7810001 4287447051
0.34612107 -0.021737073 1.7810001 4287511081
0.34946525 -0.021737073 1.7810001 4287645256
0.3528094 -0.021737073 1.7810001 4287778341
0.35795334 -0.021846917 1.7900001 4286400002
0.36131439 -0.021846917 1.7900001 4285017866
0.36671275 -0.021968966 1.8000001 4284558098
0.3700926 -0.021968966 1.8000001 4284099081
0.37533981 -0.022078812 1.8090001 4284030977
0.37873656 -0.022078812 1.8090001 4284030466
0.38213328 -0.022078812 1.8090001 4283964675
0.38766119 -0.022200862 1.8190001 4283900162
0.39107671 -0.022200862 1.8190001 4283636225
0.39644408 -0.022310706 1.8280001 4283373569
0.40206403 -0.022432756 1.8380001 4284158465
0.40551522 -0.022432756 1.8380001 4284945668
0.4134165 -0.022676855 1.858 4284359943
0.4191491 -0.022798905 1.868 4283768837
0.42265663 -0.022798905 1.868 4283834627
0.46825445 -0.022798905 1.868 4281010946
0.46923646 -0.022676855 1.858 4280945409
0.47272521 -0.022676855 1.858 4280880641
0.47365093 -0.022554806 1.848 4280946433
0.47712088 -0.022554806 1.848 4281013505
0.48059088 -0.022554806 1.848 4281341697
0.48144144 -0.022432756 1.8380001 4281735685
0.48489267 -0.022432756 1.8380001 4281540361
0.48834381 -0.022432756 1.8380001 4281409033
0.49179503 -0.022432756 1.8380001 4281606665
0.49524626 -0.022432756 1.8380001 4281804568
0.4986974 -0.022432756 1.8380001 4281674279
0.50214863 -0.022432756 1.8380001 4281542952
0.5055998 -0.022432756 1.8380001 4281542442
0.50905102 -0.022432756 1.8380001 4281542180
0.51250219 -0.022432756 1.8380001 4281477151
0.51595336 -0.022432756 1.8380001 4281411354
0.51940459 -0.022432756 1.8380001 4281411349
0.52285576 -0.022432756 1.8380001 4281411339
0.52630699 -0.022432756 1.8380001 4280820225
0.52975816 -0.022432756 1.8380001 4280291329
0.53320932 -0.022432756 1.8380001 4282852353
0.53958035 -0.022554806 1.848 4285496873
0.54305029 -0.022554806 1.848 4285559633
0.54652029 -0.022554806 1.848 4285688659
-0.36203167 -0.020633928 1.9980001 4287665020
-0.35828006 -0.020633928 1.9980001 4288455072
-0.35452846 -0.020633928 1.9980001 4289243546
-0.35077682 -0.020633928 1.9980001 4289047444
0.020396404 -0.020396404 1.9750001 4280421633
0.024104839 -0.020396404 1.9750001 4280422913
0.027813276 -0.020396404 1.9750001 4280421897
0.031521711 -0.020396404 1.9750001 4280552465
0.035230149 -0.020396404 1.9750001 4280685067
0.038938586 -0.020396404 1.9750001 4280882436
0.042647023 -0.020396404 1.9750001 4281081363
0.04635546 -0.020396404 1.9750001 4281148962
0.050063897 -0.020396404 1.9750001 4281279250
0.053472839 -0.020282803 1.9640001 4281278977
0.057160623 -0.020282803 1.9640001 4281277698
0.060848407 -0.020282803 1.9640001 4281080322
0.064536192 -0.020282803 1.9640001 4280947713
0.068223976 -0.020282803 1.9640001 4280552449
0.071911752 -0.020282803 1.9640001 4280159489
0.075599529 -0.020282803 1.9640001 4280093697
0.079287313 -0.020282803 1.9640001 4280092929
0.083439827 -0.020396404 1.9750001 4280420353
0.087148264 -0.020396404 1.9750001 4280747521
0.090856701 -0.020396404 1.9750001 4280943617
0.094565138 -0.020396404 1.9750001 4281206017
0.11716782 -0.019828402 1.9200001 4283042817
0.12077298 -0.019828402 1.9200001 4283567617
0.12437815 -0.019828402 1.9200001 4284092673
0.12725008 -0.019714801 1.909 4284686337
0.13083459 -0.019714801 1.909 4284359937
0.13371496 -0.019611526 1.899 4284032513
0.13648549 -0.019497927 1.8880001 4283902209
0.13928889 -0.019394655 1.8780001 4283769089
0.14281519 -0.019394655 1.8780001 4284030465
0.14556225 -0.01929138 1.868 4284358657
0.14906976 -0.01929138 1.868 4284754177
0.15176049 -0.019188108 1.858 4285148679
0.15441367 -0.019084835 1.848 4285149197
0.15788363 -0.019084835 1.848 4285214215
0.1613536 -0.019084835 1.848 4284886017
0.16393167 -0.018981563 1.8380001 4284557825
0.1664722 -0.01887829 1.8280001 4284688385
0.1699046 -0.01887829 1.8280001 4284884225
0.17248362 -0.018785344 1.8190001 4285078785
0.17493212 -0.018682072 1.8090001 4285277963
0.17832886 -0.018682072 1.8090001 4285673238
0.18172561 -0.018682072 1.8090001 4286067979
0.18512236 -0.018682072 1.8090001 4286199553
0.18851909 -0.018682072 1.8090001 4286396417
0.19096102 -0.018589126 1.8000001 4286790145
0.19434087 -0.018589126 1.8000001 4287248129
0.19772069 -0.018589126 1.8000001 4287051009
0.20110054 -0.018589126 1.8000001 4286855687
0.20334439 -0.018485852 1.7900001 4286856206
0.20670545 -0.018485852 1.7900001 4286854919
0.21006651 -0.018485852 1.7900001 4286985217
0.21342757 -0.018485852 1.7900001 4287116033
0.21678863 -0.018485852 1.7900001 4287313153
0.21904281 -0.018392907 1.7810001 4287511809
0.22238697 -0.018392907 1.7810001 4287840769
0.22573113 -0.018392907 1.7810001 4288234502
0.22907531 -0.018392907 1.7810001 4287906059
0.23124497 -0.018299961 1.7720001 4287578630
0.23457223 -0.018299961 1.7720001 4287578113
0.2378995 -0.018299961 1.7720001 4287644161
0.24122676 -0.018299961 1.7720001 4287578369
0.24455403 -0.018299961 1.7720001 4287578376
0.24788129 -0.018299961 1.7720001 4287578383
0.25120857 -0.018299961 1.7720001 4287643912
0.25453582 -0.018299961 1.7720001 4287446274
0.25786307 -0.018299961 1.7720001 4287314689
0.26119035 -0.018299961 1.7720001 4287445761
0.26451764 -0.018299961 1.7720001 4287577604
0.26784492 -0.018299961 1.7720001 4287643400
0.27117214 -0.018299961 1.7720001 4287707140
0.27449942 -0.018299961 1.7720001 4287902209
0.2778267 -0.018299961 1.7720001 4288101639
0.28115395 -0.018299961 1.7720001 4288104205
0.28448123 -0.018299961 1.7720001 4288170247
0.2863467 -0.018207017 1.7630001 4288302338
0.28965709 -0.018207017 1.7630001 4288432897
0.29296744 -0.018207017 1.7630001 4288170241
0.29627782 -0.018207017 1.7630001 4287908609
0.29958817 -0.018207017 1.7630001 4286730241
0.30289856 -0.018207017 1.7630001 4285611010
0.30620891 -0.018207017 1.7630001 4286128642
0.30951929 -0.018207017 1.7630001 4286722817
0.31442663 -0.018299961 1.7720001 4286788865
0.31775388 -0.018299961 1.7720001 4286920964
0.32108113 -0.018299961 1.7720001 4287119111
0.32440841 -0.018299961 1.7720001 4287315204
0.32773566 -0.018299961 1.7720001 4287380737
0.33106294 -0.018299961 1.7720001 4287511809
0.33608857 -0.018392907 1.7810001 4287381505
0.33943275 -0.018392907 1.7810001 4287315203
0.34277692 -0.018392907 1.7810001 4287381254
0.34612107 -0.018392907 1.7810001 4287511574
0.35123122 -0.018485852 1.7900001 4287316006
0.35459226 -0.018485852 1.7900001 4287186196
0.35795334 -0.018485852 1.7900001 4286137345
0.36131439 -0.018485852 1.7900001 4285149962
0.36671275 -0.018589126 1.8000001 4284360979
0.37194306 -0.018682072 1.8090001 4283571210
0.37533981 -0.018682072 1.8090001 4283568641
0.37873656 -0.018682072 1.8090001 4283634947
0.38424569 -0.018785344 1.8190001 4283633158
0.38766119 -0.018785344 1.8190001 4283634947
0.39301169 -0.01887829 1.8280001 4283307009
0.3986128 -0.018981563 1.8380001 4283044353
0.40206403 -0.018981563 1.8380001 4284811521
0.40772146 -0.019084835 1.848 4286656003
0.41564158 -0.01929138 1.868 4285286405
0.42139298 -0.019394655 1.8780001 4283967494
0.42491925 -0.019394655 1.8780001 4283964423
0.42844558 -0.019394655 1.8780001 4283966212
0.46825445 -0.01929138 1.868 4281469192
0.46923646 -0.019188108 1.858 4281206022
0.47272521 -0.019188108 1.858 4280945668
0.47365093 -0.019084835 1.848 4280946689
0.47712088 -0.019084835 1.848 4281012739
0.47799024 -0.018981563 1.8380001 4281406981
0.48144144 -0.018981563 1.8380001 4281801479
0.48489267 -0.018981563 1.8380001 4281606409
0.48834381 -0.018981563 1.8380001 4281474312
0.49179503 -0.018981563 1.8380001 4281539078
0.49524626 -0.018981563 1.8380001 4281607440
0.4986974 -0.018981563 1.8380001 4281542682
0.50214863 -0.018981563 1.8380001 4281542682
0.5055998 -0.018981563 1.8380001 4281541913
0.50905102 -0.018981563 1.8380001 4281608215
0.51250219 -0.018981563 1.8380001 4281411860
0.51595336 -0.018981563 1.8380001 4281280283
0.51940459 -0.018981563 1.8380001 4281346083
0.52285576 -0.018981563 1.8380001 4281477651
0.52630699 -0.018981563 1.8380001 4280888580
0.52975816 -0.018981563 1.8380001 4280292354
0.53320932 -0.018981563 1.8380001 4282843393
0.53958035 -0.019084835 1.848 4285423147
0.54305029 -0.019084835 1.848 4285361750
0.54652029 -0.019084835 1.848 4285295445
-0.36203167 -0.016882308 1.9980001 4287801216
-0.35828006 -0.016882308 1.9980001 4288522147
-0.35452846 -0.016882308 1.9980001 4289245596
-0.35077682 -0.016882308 1.9980001 4289113750
-0.34702519 -0.016882308 1.9980001 4288916636
-0.34327358 -0.016882308 1.9980001 4289113251
-0.33952194 -0.016882308 1.9980001 4289245095
-0.33577031 -0.016882308 1.9980001 4289048236
0.016687965 -0.016687965 1.9750001 4280421121
0.020396404 -0.016687965 1.9750001 4280224257
0.024104839 -0.016687965 1.9750001 4280356097
0.027813276 -0.016687965 1.9750001 4280421905
0.031521711 -0.016687965 1.9750001 4280619042
0.035230149 -0.016687965 1.9750001 4280816917
0.038938586 -0.016687965 1.9750001 4281014536
0.042647023 -0.016687965 1.9750001 4281279004
0.04635546 -0.016687965 1.9750001 4281410352
0.050063897 -0.016687965 1.9750001 4281606680
0.053772334 -0.016687965 1.9750001 4281475073
0.057160623 -0.016595019 1.9640001 4281342977
0.060848407 -0.016595019 1.9640001 4281145345
0.064536192 -0.016595019 1.9640001 4280946945
0.068223976 -0.016595019 1.9640001 4280552705
0.071911752 -0.016595019 1.9640001 4280159233
0.075599529 -0.016595019 1.9640001 4280158465
0.079287313 -0.016595019 1.9640001 4280223233
0.082975097 -0.016595019 1.9640001 4280681729
0.086662881 -0.016595019 1.9640001 4281140225
0.090350665 -0.016595019 1.9640001 4281140481
0.094038449 -0.016595019 1.9640001 4281140993
0.11716782 -0.016223237 1.9200001 4283174401
0.12077298 -0.016223237 1.9200001 4283633665
0.12437815 -0.016223237 1.9200001 4284030209
0.12725008 -0.016130291 1.909 4284428545
0.13083459 -0.016130291 1.909 4284164097
0.13294041 -0.01595285 1.8880001 4283966977
0.13648549 -0.01595285 1.8880001 4283900161
0.13928889 -0.015868353 1.8780001 4283833857
0.14281519 -0.015868353 1.8780001 4284161793
0.14556225 -0.015783858 1.868 4284490497
0.14906976 -0.015783858 1.868 4284885505
0.15176049 -0.015699361 1.858 4285215500
0.15441367 -0.015614865 1.848 4285215000
0.15788363 -0.015614865 1.848 4285148940
0.16048048 -0.015530368 1.8380001 4284951809
0.16393167 -0.015530368 1.8380001 4284689409
0.1664722 -0.015445872 1.8280001 4284819457
0.1690681 -0.015369827 1.8190001 4284884481
0.17248362 -0.015369827 1.8190001 4285211649
0.17493212 -0.015285333 1.8090001 4285475350
0.17832886 -0.015285333 1.8090001 4286001964
0.18172561 -0.015285333 1.8090001 4286529558
0.18512236 -0.015285333 1.8090001 4286462465
0.18851909 -0.015285333 1.8090001 4286461953
0.19096102 -0.015209285 1.8000001 4286657793
0.19434087 -0.015209285 1.8000001 4286853633
0.19772069 -0.015209285 1.8000001 4286854401
0.20110054 -0.015209285 1.8000001 4286789633
0.20448038 -0.015209285 1.8000001 4286789889
0.20670545 -0.015124789 1.7900001 4286790145
0.21006651 -0.015124789 1.7900001 4286854145
0.21342757 -0.015124789 1.7900001 4286983937
0.21678863 -0.015124789 1.7900001 4287116545
0.2201497 -0.015124789 1.7900001 4287314433
0.22238697 -0.015048742 1.7810001 4287578625
0.22573113 -0.015048742 1.7810001 4287908865
0.22907531 -0.015048742 1.7810001 4287776769
0.23241948 -0.015048742 1.7810001 4287645441
0.23576364 -0.015048742 1.7810001 4287645441
0.2391078 -0.015048742 1.7810001 4287580417
0.24122676 -0.014972696 1.7720001 4287644673
0.24455403 -0.014972696 1.7720001 4287776257
0.24788129 -0.014972696 1.7720001 4287645185
0.25120857 -0.014972696 1.7720001 4287580161
0.25453582 -0.014972696 1.7720001 4287447041
0.25786307 -0.014972696 1.7720001 4287313665
0.26119035 -0.014972696 1.7720001 4287379969
0.26451764 -0.014972696 1.7720001 4287446273
0.26784492 -0.014972696 1.7720001 4287576833
0.27117214 -0.014972696 1.7720001 4287706369
0.27449942 -0.014972696 1.7720001 4287838209
0.2778267 -0.014972696 1.7720001 4287971585
0.28115395 -0.014972696 1.7720001 4288038401
0.28303635 -0.01489665 1.7630001 4288039938
0.2863467 -0.01489665 1.7630001 4288105731
0.28965709 -0.01489665 1.7630001 4288236546
0.29446301 -0.014972696 1.7720001 4288039425
0.29627782 -0.01489665 1.7630001 4287908097
0.29958817 -0.01489665 1.7630001 4286923265
0.30289856 -0.01489665 1.7630001 4286001410
0.30777207 -0.014972696 1.7720001 4286262788
0.31109935 -0.014972696 1.7720001 4286525186
0.31442663 -0.014972696 1.7720001 4286591233
0.31775388 -0.014972696 1.7720001 4286656263
0.32108113 -0.014972696 1.7720001 4286461710
0.32440841 -0.014972696 1.7720001 4286331143
0.32773566 -0.014972696 1.7720001 4286266113
0.33106294 -0.014972696 1.7720001 4286266113
0.33608857 -0.015048742 1.7810001 4286395393
0.33943275 -0.015048742 1.7810001 4286527233
0.34277692 -0.015048742 1.7810001 4286788097
0.34612107 -0.015048742 1.7810001 4287051779
0.35123122 -0.015124789 1.7900001 4287118341
0.35459226 -0.015124789 1.7900001 4287185923
0.35795334 -0.015124789 1.7900001 4286923009
0.36333293 -0.015209285 1.8000001 4286722315
0.36671275 -0.015209285 1.8000001 4286391573
0.37194306 -0.015285333 1.8090001 4286057739
0.37533981 -0.015285333 1.8090001 4285930753
0.37873656 -0.015285333 1.8090001 4285863429
0.38424569 -0.015369827 1.8190001 4285801226
0.38957927 -0.015445872 1.8280001 4285731333
0.39516163 -0.015530368 1.8380001 4285604865
0.3986128 -0.015530368 1.8380001 4285469697
0.40425152 -0.015614865 1.848 4286459649
0.40772146 -0.015614865 1.848 4287451650
0.41564158 -0.015783858 1.868 4285809155
0.42139298 -0.015868353 1.8780001 4284227335
0.42718187 -0.01595285 1.8880001 4283900427
0.43072695 -0.01595285 1.8880001 4283575558
0.43427202 -0.01595285 1.8880001 4283770113
0.4378171 -0.01595285 1.8880001 4283967745
0.46923646 -0.015699361 1.858 4280944652
0.47018096 -0.015614865 1.848 4280880647
0.47365093 -0.015614865 1.848 4280749826
0.47712088 -0.015614865 1.848 4280619014
0.47799024 -0.015530368 1.8380001 4281079050
0.48144144 -0.015530368 1.8380001 4281539594
0.48489267 -0.015530368 1.8380001 4281474570
0.48834381 -0.015530368 1.8380001 4281474055
0.49179503 -0.015530368 1.8380001 4281540868
0.49524626 -0.015530368 1.8380001 4281674505
0.4986974 -0.015530368 1.8380001 4281674510
0.50214863 -0.015530368 1.8380001 4281674763
0.5055998 -0.015530368 1.8380001 4281674249
0.50905102 -0.015530368 1.8380001 4281675273
0.51250219 -0.015530368 1.8380001 4281543178
0.51595336 -0.015530368 1.8380001 4281411357
0.51940459 -0.015530368 1.8380001 4281346353
0.52285576 -0.015530368 1.8380001 4281281564
0.52630699 -0.015530368 1.8380001 4280821511
0.52975816 -0.015530368 1.8380001 4280358148
0.53320932 -0.015530368 1.8380001 4282919169
0.53958035 -0.015614865 1.848 4285500718
0.54305029 -0.015614865 1.848 4285363292
0.54652029 -0.015614865 1.848 4285229143
-0.36203167 -0.013130683 1.9980001 4287927668
-0.35828006 -0.013130683 1.9980001 4288586632
-0.35452846 -0.013130683 1.9980001 4289310353
-0.35077682 -0.013130683 1.9980001 4289114779
-0.34702519 -0.013130683 1.9980001 4288982941
-0.34327358 -0.013130683 1.9980001 4289178784
-0.33952194 -0.013130683 1.9980001 4289441185
-0.33577031 -0.013130683 1.9980001 4289245602
0.016687965 -0.012979529 1.9750001 4280290305
0.020396404 -0.012979529 1.9750001 4280093441
0.024104839 -0.012979529 1.9750001 4280290049
0.027813276 -0.012979529 1.9750001 4280487689
0.031521711 -0.012979529 1.9750001 4280685073
0.035230149 -0.012979529 1.9750001 4280947723
0.038938586 -0.012979529 1.9750001 4281211652
0.042647023 -0.012979529 1.9750001 4281475087
0.04635546 -0.012979529 1.9750001 4281672986
0.050063897 -0.012979529 1.9750001 4281934349
0.053772334 -0.012979529 1.9750001 4281672193
0.057160623 -0.012907238 1.9640001 4281409028
0.060848407 -0.012907238 1.9640001 4281145863
0.064536192 -0.012907238 1.9640001 4280946948
0.068223976 -0.012907238 1.9640001 4280552705
0.071911752 -0.012907238 1.9640001 4280158977
0.075599529 -0.012907238 1.9640001 4280224001
0.079287313 -0.012907238 1.9640001 4280354305
0.082975097 -0.012907238 1.9640001 4280943873
0.086662881 -0.012907238 1.9640001 4281533697
0.090350665 -0.012907238 1.9640001 4281337601
0.094038449 -0.012907238 1.9640001 4281140737
0.11716782 -0.012618073 1.9200001 4283305473
0.12077298 -0.012618073 1.9200001 4283766529
0.12366557 -0.012545781 1.909 4283966465
0.12725008 -0.012545781 1.909 4284163329
0.13014922 -0.012480062 1.899 4284032769
0.13294041 -0.012407772 1.8880001 4283965441
0.13648549 -0.012407772 1.8880001 4283963649
0.13928889 -0.012342053 1.8780001 4283964417
0.14281519 -0.012342053 1.8780001 4284292865
0.14556225 -0.012276334 1.868 4284687873
0.14906976 -0.012276334 1.868 4285017089
0.15176049 -0.012210615 1.858 4285346310
0.15441367 -0.012144895 1.848 4285216012
0.15788363 -0.012144895 1.848 4285148934
0.16048048 -0.012079176 1.8380001 4285017601
0.16303977 -0.012013457 1.8280001 4284884993
0.16565259 -0.01195431 1.8190001 4284884737
0.1690681 -0.01195431 1.8190001 4284949761
0.17153539 -0.011888592 1.8090001 4285342721
0.17493212 -0.011888592 1.8090001 4285738763
0.17832886 -0.011888592 1.8090001 4286330390
0.18172561 -0.011888592 1.8090001 4286986763
0.18512236 -0.011888592 1.8090001 4286724865
0.18851909 -0.011888592 1.8090001 4286526977
0.19096102 -0.011829443 1.8000001 4286525953
0.19434087 -0.011829443 1.8000001 4286526209
0.19772069 -0.011829443 1.8000001 4286658049
0.20110054 -0.011829443 1.8000001 4286788867
0.20334439 -0.011763724 1.7900001 4286723846
0.20670545 -0.011763724 1.7900001 4286723843
0.21006651 -0.011763724 1.7900001 4286788865
0.21342757 -0.011763724 1.7900001 4286920193
0.21678863 -0.011763724 1.7900001 4286986241
0.2201497 -0.011763724 1.7900001 4287118081
0.22238697 -0.011704578 1.7810001 4287382273
0.22573113 -0.011704578 1.7810001 4287646732
0.22907531 -0.011704578 1.7810001 4287712536
0.23124497 -0.01164543 1.7720001 4287777292
0.23457223 -0.01164543 1.7720001 4287647233
0.2378995 -0.01164543 1.7720001 4287579906
0.24122676 -0.01164543 1.7720001 4287775492
0.24455403 -0.01164543 1.7720001 4287972611
0.24788129 -0.01164543 1.7720001 4287711490
0.25120857 -0.01164543 1.7720001 4287514118
0.25453582 -0.01164543 1.7720001 4287448330
0.25786307 -0.01164543 1.7720001 4287380997
0.26119035 -0.01164543 1.7720001 4287380481
0.26451764 -0.01164543 1.7720001 4287380993
0.26784492 -0.01164543 1.7720001 4287577345
0.27117214 -0.01164543 1.7720001 4287773185
0.27449942 -0.01164543 1.7720001 4287838977
0.2778267 -0.01164543 1.7720001 4287905793
0.28115395 -0.01164543 1.7720001 4287907073
0.28303635 -0.011586283 1.7630001 4287973633
0.2863467 -0.011586283 1.7630001 4287975426
0.28965709 -0.011586283 1.7630001 4288039938
0.29296744 -0.011586283 1.7630001 4287974403
0.29627782 -0.011586283 1.7630001 4287972866
0.29958817 -0.011586283 1.7630001 4287184642
0.30289856 -0.011586283 1.7630001 4286396420
0.30777207 -0.01164543 1.7720001 4286396422
0.31109935 -0.01164543 1.7720001 4286395139
0.31442663 -0.01164543 1.7720001 4286394625
0.31775388 -0.01164543 1.7720001 4286394884
0.32108113 -0.01164543 1.7720001 4285871368
0.32440841 -0.01164543 1.7720001 4285413380
0.32773566 -0.01164543 1.7720001 4285217537
0.33106294 -0.01164543 1.7720001 4285018369
0.33608857 -0.011704578 1.7810001 4285341953
0.33943275 -0.011704578 1.7810001 4285736449
0.34277692 -0.011704578 1.7810001 4286192641
0.34612107 -0.011704578 1.7810001 4286654980
0.35123122 -0.011763724 1.7900001 4286919943
0.35459226 -0.011763724 1.7900001 4287185924
0.35795334 -0.011763724 1.7900001 4287712258
0.36333293 -0.011829443 1.8000001 4288298759
0.36671275 -0.011829443 1.8000001 4288425997
0.37194306 -0.011888592 1.8090001 4288558859
0.37741464 -0.01195431 1.8190001 4288365065
0.38083017 -0.01195431 1.8190001 4288168713
0.38614684 -0.012013457 1.8280001 4287976969
0.39171043 -0.012079176 1.8380001 4287841542
0.39516163 -0.012079176 1.8380001 4287846404
0.40078154 -0.012144895 1.848 4287906306
0.40425152 -0.012144895 1.848 4288105985
0.40992776 -0.012210615 1.858 4288302850
0.41786665 -0.012342053 1.8780001 4286402307
0.42363679 -0.012407772 1.8880001 4284493326
0.42718187 -0.012407772 1.8880001 4283834906
0.43072695 -0.012407772 1.8880001 4283246099
0.43680218 -0.012480062 1.899 4283572747
0.46923646 -0.012210615 1.858 4280683023
0.47018096 -0.012144895 1.848 4280815368
0.47365093 -0.012144895 1.848 4280488193
0.47712088 -0.012144895 1.848 4280226054
0.47799024 -0.012079176 1.8380001 4280750604
0.48144144 -0.012079176 1.8380001 4281276682
0.48489267 -0.012079176 1.8380001 4281409801
0.48834381 -0.012079176 1.8380001 4281540613
0.49179503 -0.012079176 1.8380001 4281607682
0.49524626 -0.012079176 1.8380001 4281740038
0.4986974 -0.012079176 1.8380001 4281806602
0.50214863 -0.012079176 1.8380001 4281871371
0.5055998 -0.012079176 1.8380001 4281805836
0.50905102 -0.012079176 1.8380001 4281805577
0.51250219 -0.012079176 1.8380001 4281674759
0.51595336 -0.012079176 1.8380001 4281608464
0.51940459 -0.012079176 1.8380001 4281346585
0.52285576 -0.012079176 1.8380001 4281150225
0.52630699 -0.012079176 1.8380001 4280757770
0.52975816 -0.012079176 1.8380001 4280423942
0.53320932 -0.012079176 1.8380001 4282974466
0.53958035 -0.012144895 1.848 4285554999
0.54305029 -0.012144895 1.848 4285362283
0.54652029 -0.012144895 1.848 4285164128
-0.36203167 -0.0093790591 1.9980001 4287606889
-0.35612822 -0.009322728 1.9860001 4288521837
-0.35239911 -0.009322728 1.9860001 4289442438
-0.34867004 -0.009322728 1.9860001 4289245856
-0.34702519 -0.0093790591 1.9980001 4289049246
-0.34327358 -0.0093790591 1.9980001 4289178781
-0.33952194 -0.0093790591 1.9980001 4289309595
-0.33577031 -0.0093790591 1.9980001 4289114009
-0.3320187 -0.0093790591 1.9980001 4288917136
0.016595019 -0.0092194555 1.9640001 4280093441
0.020282803 -0.0092194555 1.9640001 4279766017
0.023970583 -0.0092194555 1.9640001 4280094209
0.027813276 -0.0092710918 1.9750001 4280422657
0.031521711 -0.0092710918 1.9750001 4280684545
0.035230149 -0.0092710918 1.9750001 4280946433
0.038938586 -0.0092710918 1.9750001 4281145089
0.042647023 -0.0092710918 1.9750001 4281409027
0.04635546 -0.0092710918 1.9750001 4281475077
0.050063897 -0.0092710918 1.9750001 4281605891
0.053772334 -0.0092710918 1.9750001 4281409793
0.057160623 -0.0092194555 1.9640001 4281278983
0.060848407 -0.0092194555 1.9640001 4281014286
0.064536192 -0.0092194555 1.9640001 4280815367
0.068223976 -0.0092194555 1.9640001 4280486913
0.071911752 -0.0092194555 1.9640001 4280158721
0.075599529 -0.0092194555 1.9640001 4280289281
0.079287313 -0.0092194555 1.9640001 4280419329
0.082975097 -0.0092194555 1.9640001 4280813057
0.086662881 -0.0092194555 1.9640001 4281272065
0.08883255 -0.0090645459 1.9310001 4281206529
0.092458367 -0.0090645459 1.9310001 4281140993
0.096084185 -0.0090645459 1.9310001 4281206017
0.12146492 -0.0090645459 1.9310001 4283767297
0.12437815 -0.0090129096 1.9200001 4283964673
0.12725008 -0.0089612724 1.909 4284095233
0.13083459 -0.0089612724 1.909 4283964417
0.13294041 -0.0088626947 1.8880001 4283832833
0.13648549 -0.0088626947 1.8880001 4284028929
0.14003058 -0.0088626947 1.8880001 4284226049
0.14281519 -0.0088157523 1.8780001 4284555777
0.14634149 -0.0088157523 1.8780001 4284951041
0.14906976 -0.00876881 1.868 4285280257
0.1525773 -0.00876881 1.868 4285674753
0.15441367 -0.0086749252 1.848 4285280257
0.15788363 -0.0086749252 1.848 4284951041
0.16048048 -0.0086279828 1.8380001 4284884737
0.16303977 -0.0085810404 1.8280001 4284883457
0.16565259 -0.0085387928 1.8190001 4285014529
0.1690681 -0.0085387928 1.8190001 4285211649
0.17153539 -0.0084918514 1.8090001 4285541889
0.17493212 -0.0084918514 1.8090001 4285938177
0.17832886 -0.0084918514 1.8090001 4286331137
0.18172561 -0.0084918514 1.8090001 4286724097
0.18512236 -0.0084918514 1.8090001 4286658305
0.18851909 -0.0084918514 1.8090001 4286526721
0.19096102 -0.0084496019 1.8000001 4286526721
0.19434087 -0.0084496019 1.8000001 4286526721
0.19772069 -0.0084496019 1.8000001 4286592001
0.20110054 -0.0084496019 1.8000001 4286657030
0.20448038 -0.0084496019 1.8000001 4286657804
0.20786022 -0.0084496019 1.8000001 4286658310
0.21124007 -0.0084496019 1.8000001 4286789889
0.2146199 -0.0084496019 1.8000001 4286856705
0.21678863 -0.0084026605 1.7900001 4286855937
0.2201497 -0.0084026605 1.7900001 4286920705
0.22351076 -0.0084026605 1.7900001 4287185409
0.22687183 -0.0084026605 1.7900001 4287452184
0.23023289 -0.0084026605 1.7900001 4287581488
0.23241948 -0.0083604129 1.7810001 4287777048
0.23576364 -0.0083604129 1.7810001 4287579905
0.2391078 -0.0083604129 1.7810001 4287448068
0.24122676 -0.0083181644 1.7720001 4287579399
0.24455403 -0.0083181644 1.7720001 4287710213
0.24788129 -0.0083181644 1.7720001 4287513859
0.25120857 -0.0083181644 1.7720001 4287251211
0.25453582 -0.0083181644 1.7720001 4287316756
0.25786307 -0.0083181644 1.7720001 4287381514
0.26119035 -0.0083181644 1.7720001 4287315713
0.26451764 -0.0083181644 1.7720001 4287316993
0.26784492 -0.0083181644 1.7720001 4287447553
0.27117214 -0.0083181644 1.7720001 4287642369
0.27449942 -0.0083181644 1.7720001 4287643137
0.2778267 -0.0083181644 1.7720001 4287709697
0.28115395 -0.0083181644 1.7720001 4287775233
0.28448123 -0.0083181644 1.7720001 4287906561
0.2863467 -0.0082759168 1.7630001 4287907841
0.28965709 -0.0082759168 1.7630001 4287974147
0.29296744 -0.0082759168 1.7630001 4287842565
0.29779029 -0.0083181644 1.7720001 4287710468
0.30111757 -0.0083181644 1.7720001 4287119363
0.30444479 -0.0083181644 1.7720001 4286528006
0.30777207 -0.0083181644 1.7720001 4286396169
0.31109935 -0.0083181644 1.7720001 4286264581
0.31442663 -0.0083181644 1.7720001 4286460929
0.31775388 -0.0083181644 1.7720001 4286723073
0.32108113 -0.0083181644 1.7720001 4286134274
0.32440841 -0.0083181644 1.7720001 4285610497
0.32773566 -0.0083181644 1.7720001 4285412865
0.33274442 -0.0083604129 1.7810001 4285148929
0.33608857 -0.0083604129 1.7810001 4285278209
0.33943275 -0.0083604129 1.7810001 4285343489
0.34450907 -0.0084026605 1.7900001 4285407745
0.34787014 -0.0084026605 1.7900001 4285407749
0.35123122 -0.0084026605 1.7900001 4286067209
0.35459226 -0.0084026605 1.7900001 4286729478
0.35995308 -0.0084496019 1.8000001 4287646979
0.36333293 -0.0084496019 1.8000001 4288565508
0.36854634 -0.0084918514 1.8090001 4288827654
0.37194306 -0.0084918514 1.8090001 4289093132
0.37741464 -0.0085387928 1.8190001 4288698642
0.38083017 -0.0085387928 1.8190001 4288306957
0.38614684 -0.0085810404 1.8280001 4288108809
0.39171043 -0.0086279828 1.8380001 4287911176
0.39731157 -0.0086749252 1.848 4287910407
0.40078154 -0.0086749252 1.848 4287909892
0.40425152 -0.0086749252 1.848 4288105985
0.40992776 -0.0087218676 1.858 4288368386
0.41786665 -0.0088157523 1.8780001 4287383811
0.42363679 -0.0088626947 1.8880001 4286392598
0.42718187 -0.0088626947 1.8880001 4284952874
0.43072695 -0.0088626947 1.8880001 4283508512
0.43427202 -0.0088626947 1.8880001 4283769878
0.4378171 -0.0088626947 1.8880001 4284033037
0.47018096 -0.0086749252 1.848 4280882441
0.47365093 -0.0086749252 1.848 4280685313
0.47712088 -0.0086749252 1.848 4280554247
0.47799024 -0.0086279828 1.8380001 4280947982
0.48144144 -0.0086279828 1.8380001 4281341707
0.48489267 -0.0086279828 1.8380001 4281736200
0.48834381 -0.0086279828 1.8380001 4282129924
0.49179503 -0.0086279828 1.8380001 4282000641
0.49524626 -0.0086279828 1.8380001 4281871620
0.4986974 -0.0086279828 1.8380001 4282002439
0.50214863 -0.0086279828 1.8380001 4282067979
0.5055998 -0.0086279828 1.8380001 4281936400
0.50905102 -0.0086279828 1.8380001 4281804554
0.51250219 -0.0086279828 1.8380001 4281607940
0.51595336 -0.0086279828 1.8380001 4281411330
0.51940459 -0.0086279828 1.8380001 4281345793
0.52285576 -0.0086279828 1.8380001 4281215751
0.52630699 -0.0086279828 1.8380001 4280755982
0.52975816 -0.0086279828 1.8380001 4280293129
0.53320932 -0.0086279828 1.8380001 4282985220
0.53958035 -0.0086749252 1.848 4285761855
0.54305029 -0.0086749252 1.848 4285559931
-0.3657833 -0.0056274356 1.9980001 4286144353
-0.36203167 -0.0056274356 1.9980001 4287270764
-0.35612822 -0.005593637 1.9860001 4288386422
-0.35239911 -0.005593637 1.9860001 4289572493
-0.34867004 -0.005593637 1.9860001 4289377444
-0.34702519 -0.0056274356 1.9980001 4289179292
-0.34327358 -0.0056274356 1.9980001 4289177748
-0.33952194 -0.0056274356 1.9980001 4289179032
-0.33577031 -0.0056274356 1.9980001 4288983965
-0.3320187 -0.0056274356 1.9980001 4288786324
-0.32826707 -0.0056274356 1.9980001 4288916619
0.016493624 -0.0054978747 1.9520001 4279962629
0.020158876 -0.0054978747 1.9520001 4279504144
0.023970583 -0.0055316733 1.9640001 4279963930
0.027658366 -0.0055316733 1.9640001 4280422925
0.031521711 -0.0055626552 1.9750001 4280684801
0.035230149 -0.0055626552 1.9750001 4280947457
0.038938586 -0.0055626552 1.9750001 4281144577
0.042647023 -0.0055626552 1.9750001 4281408523
0.04635546 -0.0055626552 1.9750001 4281344022
0.050063897 -0.0055626552 1.9750001 4281278987
0.053772334 -0.0055626552 1.9750001 4281213953
0.057160623 -0.0055316733 1.9640001 4281146884
0.060848407 -0.0055316733 1.9640001 4280883208
0.064536192 -0.0055316733 1.9640001 4280684292
0.068223976 -0.0055316733 1.9640001 4280421633
0.071911752 -0.0055316733 1.9640001 4280158465
0.075599529 -0.0055316733 1.9640001 4280289537
0.079287313 -0.0055316733 1.9640001 4280485638
0.082975097 -0.0055316733 1.9640001 4280748043
0.086662881 -0.0055316733 1.9640001 4281075974
0.090856701 -0.0055626552 1.9750001 4281076225
0.094565138 -0.0055626552 1.9750001 4281140993
0.12077298 -0.0054077455 1.9200001 4283834113
0.12366557 -0.0053767636 1.909 4283964929
0.1265835 -0.0053485981 1.899 4284094465
0.12939534 -0.0053176167 1.8880001 4283896833
0.13294041 -0.0053176167 1.8880001 4283700737
0.13648549 -0.0053176167 1.8880001 4284093697
0.14003058 -0.0053176167 1.8880001 4284489729
0.14281519 -0.0052894512 1.8780001 4284819457
0.14634149 -0.0052894512 1.8780001 4285214977
0.14906976 -0.0052612857 1.868 4285609473
0.15176049 -0.0052331206 1.858 4286067201
0.15441367 -0.0052049551 1.848 4285410561
0.1570293 -0.0051767896 1.8380001 4284753923
0.16048048 -0.0051767896 1.8380001 4284818181
0.16303977 -0.0051486245 1.8280001 4284883203
0.16565259 -0.0051232758 1.8190001 4285144577
0.1690681 -0.0051232758 1.8190001 4285476097
0.17153539 -0.0050951107 1.8090001 4285806081
0.17493212 -0.0050951107 1.8090001 4286134529
0.17832886 -0.0050951107 1.8090001 4286332417
0.18172561 -0.0050951107 1.8090001 4286527505
0.18512236 -0.0050951107 1.8090001 4286526753
0.18851909 -0.0050951107 1.8090001 4286592785
0.19096102 -0.0050697615 1.8000001 4286527746
0.19434087 -0.0050697615 1.8000001 4286527233
0.19772069 -0.0050697615 1.8000001 4286526977
0.20110054 -0.0050697615 1.8000001 4286592259
0.20448038 -0.0050697615 1.8000001 4286592518
0.20786022 -0.0050697615 1.8000001 4286658563
0.21124007 -0.0050697615 1.8000001 4286725121
0.2146199 -0.0050697615 1.8000001 4286856705
0.21678863 -0.0050415965 1.7900001 4286791425
0.2201497 -0.0050415965 1.7900001 4286725121
0.22351076 -0.0050415965 1.7900001 4286986753
0.22687183 -0.0050415965 1.7900001 4287251980
0.23023289 -0.0050415965 1.7900001 4287515928
0.23241948 -0.0050162477 1.7810001 4287842060
0.23576364 -0.0050162477 1.7810001 4287579137
0.2378995 -0.0049908985 1.7720001 4287317506
0.24122676 -0.0049908985 1.7720001 4287383812
0.24455403 -0.0049908985 1.7720001 4287513859
0.24788129 -0.0049908985 1.7720001 4287251714
0.25120857 -0.0049908985 1.7720001 4287054854
0.25453582 -0.0049908985 1.7720001 4287186442
0.25786307 -0.0049908985 1.7720001 4287381765
0.26119035 -0.0049908985 1.7720001 4287315457
0.26451764 -0.0049908985 1.7720001 4287251458
0.26784492 -0.0049908985 1.7720001 4287384579
0.27117214 -0.0049908985 1.7720001 4287578882
0.27449942 -0.0049908985 1.7720001 4287513345
0.2778267 -0.0049908985 1.7720001 4287513089
0.28115395 -0.0049908985 1.7720001 4287643905
0.28303635 -0.0049655503 1.7630001 4287841281
0.2863467 -0.0049655503 1.7630001 4287841281
0.28965709 -0.0049655503 1.7630001 4287907586
0.29296744 -0.0049655503 1.7630001 4287711491
0.29627782 -0.0049655503 1.7630001 4287514114
0.29958817 -0.0049655503 1.7630001 4287120386
0.30289856 -0.0049655503 1.7630001 4286725635
0.30777207 -0.0049908985 1.7720001 4286461701
0.31109935 -0.0049908985 1.7720001 4286199555
0.31442663 -0.0049908985 1.7720001 4286592769
0.31775388 -0.0049908985 1.7720001 4287052294
0.32108113 -0.0049908985 1.7720001 4286463755
0.32440841 -0.0049908985 1.7720001 4285872135
0.32940024 -0.0050162477 1.7810001 4285609732
0.33274442 -0.0050162477 1.7810001 4285345282
0.33608857 -0.0050162477 1.7810001 4285147905
0.33943275 -0.0050162477 1.7810001 4285015043
0.34277692 -0.0050162477 1.7810001 4284621829
0.34787014 -0.0050415965 1.7900001 4284227333
0.35123122 -0.0050415965 1.7900001 4285277957
0.35459226 -0.0050415965 1.7900001 4286331651
0.35795334 -0.0050415965 1.7900001 4287581442
0.36333293 -0.0050697615 1.8000001 4288828677
0.36671275 -0.0050697615 1.8000001 4289225993
0.37194306 -0.0050951107 1.8090001 4289617417
0.37533981 -0.0050951107 1.8090001 4289030153
