# .PCD v0.7 - Point Cloud Data file format
VERSION 0.7
FIELDS x y z rgba
SIZE 4 4 4 4
TYPE F F F U
COUNT 1 1 1 1
WIDTH 1072
HEIGHT 1
VIEWPOINT 0 0 0 1 0 0 0
POINTS 1072
DATA ascii
0.24212618 -0.32131213 1.6220001 4290402817
0.24411371 -0.31992543 1.6150001 4290534657
0.24714619 -0.31992543 1.6150001 4290731266
0.25017864 -0.31992543 1.6150001 4290994179
0.25195682 -0.31834066 1.6070001 4291322116
0.25497428 -0.31834066 1.6070001 4291584006
0.25799173 -0.31834066 1.6070001 4291912201
0.26100916 -0.31834066 1.6070001 4291714827
0.26402661 -0.31834066 1.6070001 4291584538
0.26704407 -0.31834066 1.6070001 4291126057
0.27006149 -0.31834066 1.6070001 4290731293
0.27307898 -0.31834066 1.6070001 4290730001
0.2760964 -0.31834066 1.6070001 4290797321
0.27911386 -0.31834066 1.6070001 4291059714
0.28213131 -0.31834066 1.6070001 4291323410
0.28514874 -0.31834066 1.6070001 4291454243
0.2881662 -0.31834066 1.6070001 4291651608
0.29118365 -0.31834066 1.6070001 4291652877
0.29420108 -0.31834066 1.6070001 4291718173
0.29721853 -0.31834066 1.6070001 4291848238
0.30173063 -0.31992543 1.6150001 4292043550
0.30325341 -0.31834066 1.6070001 4291846159
0.30627087 -0.31834066 1.6070001 4291715854
0.30928832 -0.31834066 1.6070001 4291585036
0.31386051 -0.31992543 1.6150001 4291454229
0.31689298 -0.31992543 1.6150001 4291257374
0.31992543 -0.31992543 1.6150001 4291126043
0.3229579 -0.31992543 1.6150001 4290994200
0.32740331 -0.32131213 1.6220001 4290929937
0.33044896 -0.32131213 1.6220001 4290799370
0.33349454 -0.32131213 1.6220001 4290734342
0.33820003 -0.32289687 1.6300001 4290145026
0.34126067 -0.32289687 1.6300001 4289552400
0.34432131 -0.32289687 1.6300001 4288828959
0.34908688 -0.32448167 1.6380001 4288101904
0.35216254 -0.32448167 1.6380001 4288418561
0.3567563 -0.32586834 1.6450001 4288823297
0.36159512 -0.32745308 1.6530001 4288828162
0.36822897 -0.33062261 1.669 4288894990
0.3731429 -0.33220738 1.677 4288503579
0.37831128 -0.33399028 1.6860001 4288175381
0.38328713 -0.33557504 1.6940001 4289026831
0.38829303 -0.33715978 1.702 4289947921
0.39355901 -0.33894268 1.7110001 4286807315
0.39862689 -0.34052745 1.7190001 4283639840
0.40185466 -0.34052745 1.7190001 4283965998
0.40720323 -0.34231028 1.728 4284362275
0.4104479 -0.34231028 1.728 4284296216
-0.62462276 -0.38969004 1.9860001 4282196272
-0.62089366 -0.38969004 1.9860001 4284446031
-0.38829306 -0.39204466 1.9980001 4285560433
-0.38454142 -0.39204466 1.9980001 4285561451
-0.37850276 -0.38969004 1.9860001 4285232486
-0.37269792 -0.38753164 1.9750001 4284901465
-0.36898947 -0.38753164 1.9750001 4286411597
-0.36528105 -0.38753164 1.9750001 4287935336
-0.35955876 -0.38537323 1.9640001 4288784516
-0.35587099 -0.38537323 1.9640001 4289702025
-0.35218319 -0.38537323 1.9640001 4289375119
-0.34849539 -0.38537323 1.9640001 4289112980
-0.34480762 -0.38537323 1.9640001 4289113497
-0.34303042 -0.38753164 1.9750001 4289113755
-0.33932197 -0.38753164 1.9750001 4289114014
-0.33561355 -0.38753164 1.9750001 4289179800
-0.3319051 -0.38753164 1.9750001 4289114002
-0.32819664 -0.38753164 1.9750001 4289047944
-0.3262955 -0.38969004 1.9860001 4289113727
-0.32256639 -0.38969004 1.9860001 4289244811
-0.31883731 -0.38969004 1.9860001 4289179800
-0.31510821 -0.38969004 1.9860001 4289112735
-0.31137913 -0.38969004 1.9860001 4289178279
-0.30765003 -0.38969004 1.9860001 4289244840
-0.30392095 -0.38969004 1.9860001 4289441194
-0.30200568 -0.39204466 1.9980001 4289637539
-0.2982541 -0.39204466 1.9980001 4289309852
-0.29450247 -0.39204466 1.9980001 4288917131
-0.29075083 -0.39204466 1.9980001 4289113211
-0.28699923 -0.39204466 1.9980001 4289243531
-0.28324759 -0.39204466 1.9980001 4289178268
-0.27949595 -0.39204466 1.9980001 4289113240
0.18417129 -0.34063539 1.7360001 4285149697
0.18743096 -0.34063539 1.7360001 4284492289
0.18981187 -0.33906564 1.728 4284426241
0.19305651 -0.33906564 1.728 4284424961
0.19527876 -0.3372997 1.7190001 4283832833
0.19758269 -0.33572996 1.7110001 4283302145
0.1997392 -0.33396396 1.702 4283237377
0.20198119 -0.33239421 1.6940001 4283238913
0.20516199 -0.33239421 1.6940001 4283698689
0.20735888 -0.33082449 1.6860001 4284223234
0.20940086 -0.3290585 1.677 4284092676
0.2115358 -0.32748875 1.669 4283957507
0.2136407 -0.325919 1.6610001 4286258434
0.21675953 -0.325919 1.6610001 4288572950
0.21987839 -0.325919 1.6610001 4288501547
0.22084914 -0.32277951 1.6450001 4288499734
0.22393794 -0.32277951 1.6450001 4287053569
0.22606069 -0.32140601 1.6380001 4285670157
0.22913633 -0.32140601 1.6380001 4286261018
0.23107786 -0.31983623 1.6300001 4286855443
0.23413849 -0.31983623 1.6300001 4288037133
0.23719913 -0.31983623 1.6300001 4289287431
0.24025977 -0.31983623 1.6300001 4289746689
0.24212618 -0.31826648 1.6220001 4290271745
0.24411371 -0.31689298 1.6150001 4290403329
0.24714619 -0.31689298 1.6150001 4290534401
0.25017864 -0.31689298 1.6150001 4290928385
0.25195682 -0.31532323 1.6070001 4291388161
0.25497428 -0.31532323 1.6070001 4291585281
0.25799173 -0.31532323 1.6070001 4291781892
0.26100916 -0.31532323 1.6070001 4291650567
0.26402661 -0.31532323 1.6070001 4291520285
0.26704407 -0.31532323 1.6070001 4291257396
0.27006149 -0.31532323 1.6070001 4290927402
0.27307898 -0.31532323 1.6070001 4290797857
0.2760964 -0.31532323 1.6070001 4290668306
0.27911386 -0.31532323 1.6070001 4290929923
0.28213131 -0.31532323 1.6070001 4291258631
0.28514874 -0.31532323 1.6070001 4291454476
0.2881662 -0.31532323 1.6070001 4291650578
0.29118365 -0.31532323 1.6070001 4291586329
0.29420108 -0.31532323 1.6070001 4291521593
0.29721853 -0.31532323 1.6070001 4291651162
0.30173063 -0.31689298 1.6150001 4291845948
0.30476308 -0.31689298 1.6150001 4291714846
0.30779555 -0.31689298 1.6150001 4291583512
0.31082803 -0.31689298 1.6150001 4291453714
0.31386051 -0.31689298 1.6150001 4291389454
0.31689298 -0.31689298 1.6150001 4291191818
0.31992543 -0.31689298 1.6150001 4291060492
0.32435772 -0.31826648 1.6220001 4291060751
0.32740331 -0.31826648 1.6220001 4290995980
0.33044896 -0.31826648 1.6220001 4290930698
0.33349454 -0.31826648 1.6220001 4290799877
0.33820003 -0.31983623 1.6300001 4290077953
0.34126067 -0.31983623 1.6300001 4289418764
0.34432131 -0.31983623 1.6300001 4288697111
0.34908688 -0.32140601 1.6380001 4287973132
0.35216254 -0.32140601 1.6380001 4288624129
0.3567563 -0.32277951 1.6450001 4289285890
0.36159512 -0.32434925 1.6530001 4289090819
0.36822897 -0.32748875 1.669 4288895493
0.37514547 -0.33082449 1.6860001 4288633863
0.38010633 -0.33239421 1.6940001 4288371980
0.38509721 -0.33396396 1.702 4288961553
0.39034629 -0.33572996 1.7110001 4289618969
0.39539915 -0.3372997 1.7190001 4286665506
0.40071395 -0.33906564 1.728 4283629854
0.40395859 -0.33906564 1.728 4284029979
0.40720323 -0.33906564 1.728 4284493582
0.4104479 -0.33906564 1.728 4284360962
0.41560778 -0.34063539 1.7360001 4284293143
-0.61343551 -0.38596094 1.9860001 4287269238
-0.6097064 -0.38596094 1.9860001 4287203453
-0.38829306 -0.38829306 1.9980001 4285821808
-0.38454142 -0.38829306 1.9980001 4285953898
-0.37850276 -0.38596094 1.9860001 4285496165
-0.37269792 -0.38382322 1.9750001 4285098069
-0.36898947 -0.38382322 1.9750001 4286470469
-0.36528105 -0.38382322 1.9750001 4287928673
-0.35955876 -0.38168547 1.9640001 4288782716
-0.35587099 -0.38168547 1.9640001 4289637509
-0.35218319 -0.38168547 1.9640001 4289375630
-0.34849539 -0.38168547 1.9640001 4289178768
-0.34480762 -0.38168547 1.9640001 4289179027
-0.34111986 -0.38168547 1.9640001 4289179030
-0.33932197 -0.38382322 1.9750001 4289179033
-0.33561355 -0.38382322 1.9750001 4289179541
-0.3319051 -0.38382322 1.9750001 4289179793
-0.32819664 -0.38382322 1.9750001 4289179533
-0.32448822 -0.38382322 1.9750001 4289244810
-0.32077977 -0.38382322 1.9750001 4289309843
-0.31707135 -0.38382322 1.9750001 4289244827
-0.31510821 -0.38596094 1.9860001 4289178274
-0.31137913 -0.38596094 1.9860001 4289176744
-0.30765003 -0.38596094 1.9860001 4289243819
-0.30392095 -0.38596094 1.9860001 4289572781
-0.30200568 -0.38829306 1.9980001 4289965733
-0.2982541 -0.38829306 1.9980001 4289310364
-0.29450247 -0.38829306 1.9980001 4288720281
-0.29075083 -0.38829306 1.9980001 4288916886
-0.28699923 -0.38829306 1.9980001 4289112730
-0.28324759 -0.38829306 1.9980001 4289112990
-0.27949595 -0.38829306 1.9980001 4289113498
0.18091163 -0.33737573 1.7360001 4285084935
0.18417129 -0.33737573 1.7360001 4284888590
0.18743096 -0.33737573 1.7360001 4284754952
0.19069062 -0.33737573 1.7360001 4284492290
0.19305651 -0.335821 1.728 4284294657
0.19527876 -0.33407193 1.7190001 4283835137
0.19850652 -0.33407193 1.7190001 4283370753
0.1997392 -0.33076814 1.702 4283237121
0.20198119 -0.32921341 1.6940001 4283107329
0.20516199 -0.32921341 1.6940001 4283567617
0.20735888 -0.32765868 1.6860001 4284026626
0.20940086 -0.32590961 1.677 4283962116
0.21254975 -0.32590961 1.677 4283959301
0.2136407 -0.32280019 1.6610001 4286317831
0.21675953 -0.32280019 1.6610001 4288695055
0.21987839 -0.32280019 1.6610001 4288629783
0.22192319 -0.32124543 1.6530001 4288629004
0.22298503 -0.31833035 1.6380001 4286991105
0.22606069 -0.31833035 1.6380001 4285408007
0.22913633 -0.31833035 1.6380001 4286319629
0.23107786 -0.31677562 1.6300001 4287247370
0.23413849 -0.31677562 1.6300001 4288168199
0.23603496 -0.31522089 1.6220001 4289156356
0.23908058 -0.31522089 1.6220001 4289682689
0.24212618 -0.31522089 1.6220001 4290206209
0.24411371 -0.31386051 1.6150001 4290272513
0.24714619 -0.31386051 1.6150001 4290338049
0.25017864 -0.31386051 1.6150001 4290928641
0.25195682 -0.31230578 1.6070001 4291519489
0.25497428 -0.31230578 1.6070001 4291587073
0.25799173 -0.31230578 1.6070001 4291651334
0.26100916 -0.31230578 1.6070001 4291585804
0.26402661 -0.31230578 1.6070001 4291520276
0.26704407 -0.31230578 1.6070001 4291324700
0.27006149 -0.31230578 1.6070001 4291192599
0.27307898 -0.31230578 1.6070001 4290866451
0.2760964 -0.31230578 1.6070001 4290537482
0.27911386 -0.31230578 1.6070001 4290864898
0.28213131 -0.31230578 1.6070001 4291257860
0.28514874 -0.31230578 1.6070001 4291454982
0.2881662 -0.31230578 1.6070001 4291651081
0.29118365 -0.31230578 1.6070001 4291520525
0.29420108 -0.31230578 1.6070001 4291389477
0.29721853 -0.31230578 1.6070001 4291520318
0.30173063 -0.31386051 1.6150001 4291650344
0.30476308 -0.31386051 1.6150001 4291518226
0.30779555 -0.31386051 1.6150001 4291453724
0.31082803 -0.31386051 1.6150001 4291388455
0.31386051 -0.31386051 1.6150001 4291322396
0.31689298 -0.31386051 1.6150001 4291191826
0.31992543 -0.31386051 1.6150001 4291060494
0.32435772 -0.31522089 1.6220001 4291061259
0.32740331 -0.31522089 1.6220001 4291127048
0.33044896 -0.31522089 1.6220001 4290996997
0.33349454 -0.31522089 1.6220001 4290931715
0.33820003 -0.31677562 1.6300001 4290080001
0.34126067 -0.31677562 1.6300001 4289289734
0.34432131 -0.31677562 1.6300001 4288568332
0.34908688 -0.31833035 1.6380001 4287840774
0.35216254 -0.31833035 1.6380001 4288753921
0.3567563 -0.3196907 1.6450001 4289743623
0.36159512 -0.32124543 1.6530001 4289353997
0.36822897 -0.32435489 1.669 4288960521
0.3731429 -0.32590961 1.677 4288764421
0.38010633 -0.32921341 1.6940001 4288567560
0.38509721 -0.33076814 1.702 4288959755
0.39034629 -0.33251724 1.7110001 4289356821
0.39539915 -0.33407193 1.7190001 4286541088
0.39862689 -0.33407193 1.7190001 4283704091
0.40395859 -0.335821 1.728 4284161814
0.40720323 -0.335821 1.728 4284623380
0.4104479 -0.335821 1.728 4284492307
0.41560778 -0.33737573 1.7360001 4284360479
-0.62089366 -0.38223183 1.9860001 4284382796
-0.61716461 -0.38223183 1.9860001 4285822064
-0.61343551 -0.38223183 1.9860001 4287273847
-0.6097064 -0.38223183 1.9860001 4287204479
-0.39204466 -0.38454142 1.9980001 4285559654
-0.38829306 -0.38454142 1.9980001 4285690991
-0.38454142 -0.38454142 1.9980001 4285888361
-0.37850276 -0.38223183 1.9860001 4285494116
-0.37269792 -0.38011476 1.9750001 4285163345
-0.36898947 -0.38011476 1.9750001 4286542654
-0.36528105 -0.38011476 1.9750001 4288002393
-0.35955876 -0.37799767 1.9640001 4288785525
-0.35587099 -0.37799767 1.9640001 4289510785
-0.35218319 -0.37799767 1.9640001 4289310861
-0.34849539 -0.37799767 1.9640001 4289047693
-0.34480762 -0.37799767 1.9640001 4289113742
-0.34303042 -0.38011476 1.9750001 4289179281
-0.33932197 -0.38011476 1.9750001 4289179540
-0.33561355 -0.38011476 1.9750001 4289245586
-0.3319051 -0.38011476 1.9750001 4289179792
-0.32819664 -0.38011476 1.9750001 4289114515
-0.32448822 -0.38011476 1.9750001 4289113238
-0.32077977 -0.38011476 1.9750001 4289177498
-0.31883731 -0.38223183 1.9860001 4289178015
-0.31510821 -0.38223183 1.9860001 4289113508
-0.31137913 -0.38223183 1.9860001 4289177514
-0.30765003 -0.38223183 1.9860001 4289243309
-0.30392095 -0.38223183 1.9860001 4289441201
-0.30200568 -0.38454142 1.9980001 4289638311
-0.2982541 -0.38454142 1.9980001 4289310365
-0.29450247 -0.38454142 1.9980001 4289048231
-0.29075083 -0.38454142 1.9980001 4289113009
-0.28699923 -0.38454142 1.9980001 4289243305
-0.28324759 -0.38454142 1.9980001 4289178273
-0.27949595 -0.38454142 1.9980001 4289113500
0.17765194 -0.33411604 1.7360001 4284754689
0.18091163 -0.33411604 1.7360001 4284887310
0.18417129 -0.33411604 1.7360001 4284755227
0.18743096 -0.33411604 1.7360001 4284688143
0.19069062 -0.33411604 1.7360001 4284557828
0.19305651 -0.33257636 1.728 4284426754
0.19630118 -0.33257636 1.728 4283965441
0.19850652 -0.33084419 1.7190001 4283502593
0.1997392 -0.32757232 1.702 4282976769
0.20198119 -0.32603261 1.6940001 4282517249
0.20516199 -0.32603261 1.6940001 4283238913
0.20735888 -0.32449293 1.6860001 4283894786
0.20940086 -0.32276073 1.677 4283894276
0.21254975 -0.32276073 1.677 4283893512
0.21466966 -0.32122102 1.669 4286193420
0.21675953 -0.31968135 1.6610001 4288572679
0.21987839 -0.31968135 1.6610001 4288368643
0.22192319 -0.31814164 1.6530001 4288167682
0.22298503 -0.31525469 1.6380001 4286658817
0.22606069 -0.31525469 1.6380001 4285141761
0.22913633 -0.31525469 1.6380001 4286260481
0.23107786 -0.31371498 1.6300001 4287384065
0.23413849 -0.31371498 1.6300001 4288301825
0.23719913 -0.31371498 1.6300001 4289224961
0.23908058 -0.31217524 1.6220001 4289550849
0.24212618 -0.31217524 1.6220001 4289811969
0.24411371 -0.31082803 1.6150001 4290140929
0.24714619 -0.31082803 1.6150001 4290534913
0.25017864 -0.31082803 1.6150001 4290863105
0.25321111 -0.31082803 1.6150001 4291256577
0.25497428 -0.30928832 1.6070001 4291585537
0.25799173 -0.30928832 1.6070001 4291913481
0.26100916 -0.30928832 1.6070001 4291716370
0.26402661 -0.30928832 1.6070001 4291585291
0.26704407 -0.30928832 1.6070001 4291389189
0.27006149 -0.30928832 1.6070001 4291193093
0.27307898 -0.30928832 1.6070001 4290930437
0.2760964 -0.30928832 1.6070001 4290733571
0.27911386 -0.30928832 1.6070001 4290863873
0.28213131 -0.30928832 1.6070001 4291060225
0.28390664 -0.30794105 1.6 4291519233
0.28691095 -0.30794105 1.6 4291978241
0.29118365 -0.30928832 1.6070001 4291781889
0.29420108 -0.30928832 1.6070001 4291585810
0.29721853 -0.30928832 1.6070001 4291651107
0.30173063 -0.31082803 1.6150001 4291782421
0.30476308 -0.31082803 1.6150001 4291585799
0.30779555 -0.31082803 1.6150001 4291455777
0.31082803 -0.31082803 1.6150001 4291257148
0.31386051 -0.31082803 1.6150001 4291124011
0.31689298 -0.31082803 1.6150001 4291124763
0.31992543 -0.31082803 1.6150001 4291059729
0.3229579 -0.31082803 1.6150001 4290994951
0.32599038 -0.31082803 1.6150001 4290995716
0.33044896 -0.31217524 1.6220001 4290931201
0.33349454 -0.31217524 1.6220001 4290867201
0.33820003 -0.31371498 1.6300001 4290079490
0.34126067 -0.31371498 1.6300001 4289289217
0.34432131 -0.31371498 1.6300001 4288827905
0.34908688 -0.31525469 1.6380001 4288361985
0.35216254 -0.31525469 1.6380001 4288887810
0.3567563 -0.3166019 1.6450001 4289418253
0.36159512 -0.31814164 1.6530001 4289090584
0.36822897 -0.32122102 1.669 4288828429
0.37692553 -0.32603261 1.6940001 4288567043
0.38190138 -0.32757232 1.702 4288371204
0.38509721 -0.32757232 1.702 4288830470
0.39034629 -0.32930449 1.7110001 4289358354
0.39539915 -0.33084419 1.7190001 4286468126
0.39862689 -0.33084419 1.7190001 4283629847
0.40395859 -0.33257636 1.728 4284029969
0.40908846 -0.33411604 1.7360001 4284428315
0.41234812 -0.33411604 1.7360001 4284295973
-0.62089366 -0.37850276 1.9860001 4284306252
-0.61716461 -0.37850276 1.9860001 4285749616
-0.61343551 -0.37850276 1.9860001 4287268470
-0.6097064 -0.37850276 1.9860001 4287203707
-0.38829306 -0.38078979 1.9980001 4285625197
-0.38454142 -0.38078979 1.9980001 4285887849
-0.37850276 -0.37850276 1.9860001 4285560421
-0.37269792 -0.37640631 1.9750001 4285228629
-0.36898947 -0.37640631 1.9750001 4286666053
-0.36528105 -0.37640631 1.9750001 4288124254
-0.35955876 -0.3743099 1.9640001 4288781175
-0.35587099 -0.3743099 1.9640001 4289440646
-0.35218319 -0.3743099 1.9640001 4289178517
-0.34849539 -0.3743099 1.9640001 4288982418
-0.34673882 -0.37640631 1.9750001 4289048976
-0.34303042 -0.37640631 1.9750001 4289179542
-0.33932197 -0.37640631 1.9750001 4289245339
-0.33561355 -0.37640631 1.9750001 4289310617
-0.3319051 -0.37640631 1.9750001 4289180054
-0.32819664 -0.37640631 1.9750001 4289048473
-0.3262955 -0.37850276 1.9860001 4289047965
-0.32256639 -0.37850276 1.9860001 4289112225
-0.31883731 -0.37850276 1.9860001 4289110693
-0.31510821 -0.37850276 1.9860001 4289112484
-0.31137913 -0.37850276 1.9860001 4289176739
-0.30765003 -0.37850276 1.9860001 4289309604
-0.30392095 -0.37850276 1.9860001 4289310373
-0.30200568 -0.38078979 1.9980001 4289375902
-0.2982541 -0.38078979 1.9980001 4289375895
-0.29450247 -0.38078979 1.9980001 4289375647
-0.29075083 -0.38078979 1.9980001 4289375144
-0.28699923 -0.38078979 1.9980001 4289373858
-0.28324759 -0.38078979 1.9980001 4289243293
-0.27949595 -0.38078979 1.9980001 4289178514
0.17765194 -0.33085641 1.7360001 4284622081
0.18091163 -0.33085641 1.7360001 4284688135
0.18417129 -0.33085641 1.7360001 4284623118
0.18743096 -0.33085641 1.7360001 4284623880
0.18981187 -0.3293317 1.728 4284624386
0.19305651 -0.3293317 1.728 4284622602
0.19630118 -0.3293317 1.728 4284097811
0.19850652 -0.32761645 1.7190001 4283635210
0.20079543 -0.32609174 1.7110001 4282781441
0.20293504 -0.32437649 1.702 4281993473
0.20516199 -0.32285181 1.6940001 4282910721
0.20735888 -0.32132712 1.6860001 4283827969
0.21052468 -0.32132712 1.6860001 4283827458
0.21254975 -0.31961185 1.677 4283828495
0.21466966 -0.31808716 1.669 4286120732
0.21780352 -0.31808716 1.669 4288431632
0.21987839 -0.31656247 1.6610001 4288104707
0.22192319 -0.31503782 1.6530001 4287776002
0.22393794 -0.31351313 1.6450001 4286334977
0.22606069 -0.31217903 1.6380001 4284885249
0.22913633 -0.31217903 1.6380001 4286196994
0.23107786 -0.31065434 1.6300001 4287578113
0.23413849 -0.31065434 1.6300001 4288430337
0.23719913 -0.31065434 1.6300001 4289351681
0.23908058 -0.30912966 1.6220001 4289418241
0.24212618 -0.30912966 1.6220001 4289485569
0.24411371 -0.30779555 1.6150001 4290076161
0.24714619 -0.30779555 1.6150001 4290731526
0.25017864 -0.30779555 1.6150001 4290863627
0.25321111 -0.30779555 1.6150001 4291060490
0.25497428 -0.30627087 1.6070001 4291585033
0.25799173 -0.30627087 1.6070001 4292174878
0.26100916 -0.30627087 1.6070001 4291911987
0.26402661 -0.30627087 1.6070001 4291650589
0.26704407 -0.30627087 1.6070001 4291454472
0.27006149 -0.30627087 1.6070001 4291257609
0.27307898 -0.30627087 1.6070001 4291060489
0.2760964 -0.30627087 1.6070001 4290929413
0.27911386 -0.30627087 1.6070001 4290928641
0.28213131 -0.30627087 1.6070001 4290928641
0.28390664 -0.30493677 1.6 4291583489
0.28691095 -0.30493677 1.6 4292305153
0.29118365 -0.30627087 1.6070001 4292043521
0.29420108 -0.30627087 1.6070001 4291782168
0.29721853 -0.30627087 1.6070001 4291847471
0.30023599 -0.30627087 1.6070001 4291979033
0.30476308 -0.30779555 1.6150001 4291717892
0.30779555 -0.30779555 1.6150001 4291454738
0.31082803 -0.30779555 1.6150001 4291191584
0.31386051 -0.30779555 1.6150001 4290993943
0.31689298 -0.30779555 1.6150001 4291058190
0.31992543 -0.30779555 1.6150001 4291125257
0.3229579 -0.30779555 1.6150001 4290994436
0.32599038 -0.30779555 1.6150001 4290865155
0.33044896 -0.30912966 1.6220001 4290799617
0.33349454 -0.30912966 1.6220001 4290801162
0.33820003 -0.31065434 1.6300001 4290081811
0.34126067 -0.31065434 1.6300001 4289356554
0.34432131 -0.31065434 1.6300001 4289158145
0.34908688 -0.31217903 1.6380001 4288953857
0.35216254 -0.31217903 1.6380001 4289017601
0.3567563 -0.31351313 1.6450001 4289088007
0.36159512 -0.31503782 1.6530001 4288892685
0.36822897 -0.31808716 1.669 4288762376
0.3731429 -0.31961185 1.677 4288435460
0.38010633 -0.32285181 1.6940001 4288173329
0.38509721 -0.32437649 1.702 4288763678
0.38829303 -0.32437649 1.702 4289357079
0.39355901 -0.32609174 1.7110001 4286474256
0.39862689 -0.32761645 1.7190001 4283572758
0.40395859 -0.3293317 1.728 4283899932
0.40908846 -0.33085641 1.7360001 4284295451
0.41234812 -0.33085641 1.7360001 4284163867
-0.38829306 -0.37703818 1.9980001 4285690987
-0.38454142 -0.37703818 1.9980001 4285756521
-0.37850276 -0.37477365 1.9860001 4285428071
-0.37269792 -0.37269792 1.9750001 4285097561
-0.36898947 -0.37269792 1.9750001 4286607436
-0.36528105 -0.37269792 1.9750001 4288129891
-0.35955876 -0.3706221 1.9640001 4288849274
-0.35587099 -0.3706221 1.9640001 4289571211
-0.35218319 -0.3706221 1.9640001 4289440669
-0.34849539 -0.3706221 1.9640001 4289310616
-0.34480762 -0.3706221 1.9640001 4289245075
-0.34111986 -0.3706221 1.9640001 4289245339
-0.33932197 -0.37269792 1.9750001 4289375907
-0.33561355 -0.37269792 1.9750001 4289506720
-0.3319051 -0.37269792 1.9750001 4289310365
-0.32819664 -0.37269792 1.9750001 4289179296
-0.3262955 -0.37477365 1.9860001 4289178788
-0.32256639 -0.37477365 1.9860001 4289178791
-0.31883731 -0.37477365 1.9860001 4289113003
-0.31510821 -0.37477365 1.9860001 4289114532
-0.31137913 -0.37477365 1.9860001 4289244829
-0.30765003 -0.37477365 1.9860001 4289377179
-0.30575731 -0.37703818 1.9980001 4289180057
-0.30200568 -0.37703818 1.9980001 4289048725
-0.2982541 -0.37703818 1.9980001 4289113746
-0.28324759 -0.37703818 1.9980001 4289177753
-0.27949595 -0.37703818 1.9980001 4289113736
0.17765194 -0.32759672 1.7360001 4284622337
0.18007793 -0.32608706 1.728 4284489217
0.18332258 -0.32608706 1.728 4284358913
0.18743096 -0.32759672 1.7360001 4284297729
0.18981187 -0.32608706 1.728 4284490753
0.19305651 -0.32608706 1.728 4284686867
0.19630118 -0.32608706 1.728 4284161317
0.19850652 -0.32438868 1.7190001 4283700243
0.20079543 -0.32287902 1.7110001 4283108609
0.20293504 -0.32118064 1.702 4282582529
0.20613086 -0.32118064 1.702 4283106561
0.20834279 -0.31967101 1.6940001 4283696385
0.21052468 -0.31816134 1.6860001 4283762689
0.21254975 -0.31646293 1.677 4283897367
0.21466966 -0.3149533 1.669 4286062893
0.21780352 -0.3149533 1.669 4288307480
0.21987839 -0.31344366 1.6610001 4287844100
0.22192319 -0.31193399 1.6530001 4287383298
0.22393794 -0.31042433 1.6450001 4286332161
0.22606069 -0.30910337 1.6380001 4285341186
0.22913633 -0.30910337 1.6380001 4286525444
0.23107786 -0.30759373 1.6300001 4287711234
0.23413849 -0.30759373 1.6300001 4288496897
0.23603496 -0.30608407 1.6220001 4289350913
0.23908058 -0.30608407 1.6220001 4289549825
0.24212618 -0.30608407 1.6220001 4289684481
0.24411371 -0.30476308 1.6150001 4290141953
0.24714619 -0.30476308 1.6150001 4290599435
0.25017864 -0.30476308 1.6150001 4290797333
0.25321111 -0.30476308 1.6150001 4291061267
0.25624362 -0.30476308 1.6150001 4291454225
0.25799173 -0.30325341 1.6070001 4291847986
0.26100916 -0.30325341 1.6070001 4291716180
0.26402661 -0.30325341 1.6070001 4291651120
0.26704407 -0.30325341 1.6070001 4291519756
0.27006149 -0.30325341 1.6070001 4291454221
0.27307898 -0.30325341 1.6070001 4291257358
0.2760964 -0.30325341 1.6070001 4291126279
0.27911386 -0.30325341 1.6070001 4290929153
0.28213131 -0.30325341 1.6070001 4290732033
0.28390664 -0.30193245 1.6 4291321857
0.28691095 -0.30193245 1.6 4291911681
0.28991526 -0.30193245 1.6 4291781633
0.29420108 -0.30325341 1.6070001 4291717918
0.29721853 -0.30325341 1.6070001 4291782715
0.30023599 -0.30325341 1.6070001 4291847966
0.30325341 -0.30325341 1.6070001 4291651330
0.30779555 -0.30476308 1.6150001 4291454467
0.31082803 -0.30476308 1.6150001 4291191812
0.31386051 -0.30476308 1.6150001 4290995202
0.31689298 -0.30476308 1.6150001 4291126017
0.31992543 -0.30476308 1.6150001 4291323649
0.3229579 -0.30476308 1.6150001 4291127810
0.32599038 -0.30476308 1.6150001 4290867714
0.33044896 -0.30608407 1.6220001 4290800130
0.33349454 -0.30608407 1.6220001 4290735123
0.33820003 -0.30759373 1.6300001 4290079013
0.34126067 -0.30759373 1.6300001 4289421587
0.34432131 -0.30759373 1.6300001 4289221121
0.34908688 -0.30910337 1.6380001 4289081089
0.35216254 -0.30910337 1.6380001 4289019393
0.3567563 -0.31042433 1.6450001 4288958465
0.36334512 -0.31344366 1.6610001 4288827650
0.36822897 -0.3149533 1.669 4288697092
0.37514547 -0.31816134 1.6860001 4288500230
0.38010633 -0.31967101 1.6940001 4288368926
0.38509721 -0.32118064 1.702 4288961078
0.39034629 -0.32287902 1.7110001 4289555228
0.39539915 -0.32438868 1.7190001 4286533891
0.39862689 -0.32438868 1.7190001 4283564309
0.40395859 -0.32608706 1.728 4283898663
0.40908846 -0.32759672 1.7360001 4284296476
0.41234812 -0.32759672 1.7360001 4284230162
-0.38454142 -0.37328655 1.9980001 4285625192
-0.37850276 -0.37104458 1.9860001 4285298029
-0.37269792 -0.36898947 1.9750001 4284967009
-0.36898947 -0.36898947 1.9750001 4286536789
-0.36528105 -0.36898947 1.9750001 4288189031
-0.35955876 -0.36693433 1.9640001 4288915066
-0.35587099 -0.36693433 1.9640001 4289702287
-0.35218319 -0.36693433 1.9640001 4289637540
-0.34849539 -0.36693433 1.9640001 4289637278
-0.34480762 -0.36693433 1.9640001 4289506712
-0.34303042 -0.36898947 1.9750001 4289375386
-0.33932197 -0.36898947 1.9750001 4289506205
-0.33561355 -0.36898947 1.9750001 4289703068
-0.3319051 -0.36898947 1.9750001 4289506715
-0.33002457 -0.37104458 1.9860001 4289309854
-0.3262955 -0.37104458 1.9860001 4289244322
-0.32256639 -0.37104458 1.9860001 4289244070
-0.31883731 -0.37104458 1.9860001 4289179049
-0.31510821 -0.37104458 1.9860001 4289179559
-0.31137913 -0.37104458 1.9860001 4289311652
-0.30765003 -0.37104458 1.9860001 4289442464
-0.30575731 -0.37328655 1.9980001 4289115037
-0.30200568 -0.37328655 1.9980001 4288786580
-0.2982541 -0.37328655 1.9980001 4288917387
-0.28699923 -0.37328655 1.9980001 4289243548
-0.28324759 -0.37328655 1.9980001 4289179035
-0.27949595 -0.37328655 1.9980001 4289113235
0.17765194 -0.32433707 1.7360001 4284622849
0.18091163 -0.32433707 1.7360001 4284291841
0.18417129 -0.32433707 1.7360001 4284157442
0.18743096 -0.32433707 1.7360001 4284029185
0.19069062 -0.32433707 1.7360001 4284354561
0.19305651 -0.32284242 1.728 4284749834
0.19630118 -0.32284242 1.728 4284291347
0.19850652 -0.32116094 1.7190001 4283831050
0.20079543 -0.3196663 1.7110001 4283502081
0.20293504 -0.31798482 1.702 4283172353
0.20613086 -0.31798482 1.702 4283368193
0.20834279 -0.3164902 1.6940001 4283565057
0.21152361 -0.3164902 1.6940001 4283761409
0.21369046 -0.31499556 1.6860001 4283961613
0.21466966 -0.31181943 1.669 4286057498
0.21780352 -0.31181943 1.669 4288235287
0.21987839 -0.31032482 1.6610001 4287581461
0.22192319 -0.30883017 1.6530001 4286990347
0.22393794 -0.30733553 1.6450001 4286400513
0.22606069 -0.30602774 1.6380001 4285868033
0.22913633 -0.30602774 1.6380001 4286853122
0.23221198 -0.30602774 1.6380001 4287838722
0.23413849 -0.30453306 1.6300001 4288626690
0.23603496 -0.30303842 1.6220001 4289416705
0.23908058 -0.30303842 1.6220001 4289680129
0.24108127 -0.30173063 1.6150001 4289945345
0.24411371 -0.30173063 1.6150001 4290208002
0.24714619 -0.30173063 1.6150001 4290534154
0.25017864 -0.30173063 1.6150001 4290796306
0.25321111 -0.30173063 1.6150001 4291060239
0.25497428 -0.30023599 1.6070001 4291323405
0.25799173 -0.30023599 1.6070001 4291585057
0.26100916 -0.30023599 1.6070001 4291585077
0.26402661 -0.30023599 1.6070001 4291650077
0.26704407 -0.30023599 1.6070001 4291650566
0.27006149 -0.30023599 1.6070001 4291716615
0.27307898 -0.30023599 1.6070001 4291519496
0.2760964 -0.30023599 1.6070001 4291322891
0.27911386 -0.30023599 1.6070001 4290929934
0.28090236 -0.29892814 1.6 4290535691
0.28390664 -0.29892814 1.6 4290994697
0.2881662 -0.30023599 1.6070001 4291518729
0.29118365 -0.30023599 1.6070001 4291585033
0.29420108 -0.30023599 1.6070001 4291716889
0.29721853 -0.30023599 1.6070001 4291717929
0.30023599 -0.30023599 1.6070001 4291716886
0.30476308 -0.30173063 1.6150001 4291585795
0.30779555 -0.30173063 1.6150001 4291519490
0.31082803 -0.30173063 1.6150001 4291257602
0.31386051 -0.30173063 1.6150001 4290994946
0.31689298 -0.30173063 1.6150001 4291258627
0.31992543 -0.30173063 1.6150001 4291586306
0.3229579 -0.30173063 1.6150001 4291259906
0.32599038 -0.30173063 1.6150001 4290931201
0.32902282 -0.30173063 1.6150001 4290798337
0.33349454 -0.30303842 1.6220001 4290667530
0.33820003 -0.30453306 1.6300001 4290077460
0.34126067 -0.30453306 1.6300001 4289552650
0.34432131 -0.30453306 1.6300001 4289355009
0.34908688 -0.30602774 1.6380001 4289218054
0.35216254 -0.30602774 1.6380001 4289020684
0.3567563 -0.30733553 1.6450001 4288892171
0.36334512 -0.31032482 1.6610001 4288762634
0.36822897 -0.31181943 1.669 4288630792
0.3731429 -0.31331408 1.677 4288565510
0.38010633 -0.3164902 1.6940001 4288565521
0.38509721 -0.31798482 1.702 4289156381
0.39034629 -0.3196663 1.7110001 4289751057
0.39539915 -0.32116094 1.7190001 4286673413
0.40071395 -0.32284242 1.728 4283573516
0.40395859 -0.32284242 1.728 4283965716
0.40908846 -0.32433707 1.7360001 4284361748
0.41234812 -0.32433707 1.7360001 4284296213
-0.38454142 -0.36953491 1.9980001 4285493607
-0.37850276 -0.36731547 1.9860001 4285166195
-0.37269792 -0.36528105 1.9750001 4284901992
-0.36898947 -0.36528105 1.9750001 4286475614
-0.36528105 -0.36528105 1.9750001 4288060268
-0.35955876 -0.36324653 1.9640001 4288783227
-0.35587099 -0.36324653 1.9640001 4289571475
-0.35218319 -0.36324653 1.9640001 4289440427
-0.34849539 -0.36324653 1.9640001 4289374116
-0.34480762 -0.36324653 1.9640001 4289309086
-0.34303042 -0.36528105 1.9750001 4289309594
-0.33932197 -0.36528105 1.9750001 4289309591
-0.33561355 -0.36528105 1.9750001 4289375384
-0.3319051 -0.36528105 1.9750001 4289309849
-0.33002457 -0.36731547 1.9860001 4289244317
-0.3262955 -0.36731547 1.9860001 4289309857
-0.32256639 -0.36731547 1.9860001 4289440420
-0.31883731 -0.36731547 1.9860001 4289309864
-0.31510821 -0.36731547 1.9860001 4289179306
-0.31137913 -0.36731547 1.9860001 4289376172
-0.30765003 -0.36731547 1.9860001 4289573030
-0.30392095 -0.36731547 1.9860001 4289245345
-0.30200568 -0.36953491 1.9980001 4288983186
-0.2982541 -0.36953491 1.9980001 4289048452
-0.29450247 -0.36953491 1.9980001 4289114255
-0.29075083 -0.36953491 1.9980001 4289244571
-0.28699923 -0.36953491 1.9980001 4289440412
-0.28154638 -0.36731547 1.9860001 4289309598
-0.27781728 -0.36731547 1.9860001 4289178783
-0.27574435 -0.36953491 1.9980001 4289178272
-0.27199271 -0.36953491 1.9980001 4289178272
0.17765194 -0.32107738 1.7360001 4284951810
0.18091163 -0.32107738 1.7360001 4284750338
0.18417129 -0.32107738 1.7360001 4284421635
0.18743096 -0.32107738 1.7360001 4284093442
0.19069062 -0.32107738 1.7360001 4284224001
0.19305651 -0.31959778 1.728 4284356353
0.19630118 -0.31959778 1.728 4284028929
0.19850652 -0.3179332 1.7190001 4283765761
0.20079543 -0.31645358 1.7110001 4283502081
0.20293504 -0.314789 1.702 4283237377
0.20613086 -0.314789 1.702 4283040769
0.20834279 -0.3133094 1.6940001 4282910209
0.21152361 -0.3133094 1.6940001 4283567105
0.21369046 -0.31182978 1.6860001 4284293124
0.21466966 -0.30868557 1.669 4286197255
0.21780352 -0.30868557 1.669 4288177430
0.21987839 -0.30720598 1.6610001 4287320614
0.22084914 -0.30424672 1.6450001 4286465811
0.22393794 -0.30424672 1.6450001 4286066945
0.22606069 -0.30295208 1.6380001 4285664001
0.22913633 -0.30295208 1.6380001 4286786049
0.23221198 -0.30295208 1.6380001 4287902466
0.23413849 -0.30147243 1.6300001 4288628228
0.23603496 -0.29999283 1.6220001 4289354242
0.23804879 -0.29869816 1.6150001 4289616129
0.24108127 -0.29869816 1.6150001 4289881602
0.24411371 -0.29869816 1.6150001 4290207235
0.24592192 -0.29721853 1.6070001 4290467593
0.24893939 -0.29721853 1.6070001 4290730511
0.25195682 -0.29721853 1.6070001 4290928908
0.25497428 -0.29721853 1.6070001 4291191306
0.25799173 -0.29721853 1.6070001 4291453456
0.26100916 -0.29721853 1.6070001 4291584534
0.26402661 -0.29721853 1.6070001 4291648779
0.26704407 -0.29721853 1.6070001 4291716609
0.27006149 -0.29721853 1.6070001 4291783937
0.27307898 -0.29721853 1.6070001 4291585794
0.2760964 -0.29721853 1.6070001 4291388430
0.27911386 -0.29721853 1.6070001 4291059739
0.28213131 -0.29721853 1.6070001 4290731798
0.28514874 -0.29721853 1.6070001 4291059473
0.2881662 -0.29721853 1.6070001 4291387665
0.29118365 -0.29721853 1.6070001 4291518737
0.29420108 -0.29721853 1.6070001 4291650324
0.29721853 -0.29721853 1.6070001 4291651096
0.30023599 -0.29721853 1.6070001 4291650574
0.30476308 -0.29869816 1.6150001 4291584772
0.30779555 -0.29869816 1.6150001 4291518210
0.31082803 -0.29869816 1.6150001 4291256321
0.31386051 -0.29869816 1.6150001 4291058947
0.31689298 -0.29869816 1.6150001 4291191301
0.31992543 -0.29869816 1.6150001 4291388931
0.3229579 -0.29869816 1.6150001 4291127298
0.32599038 -0.29869816 1.6150001 4290930177
0.32902282 -0.29869816 1.6150001 4290798337
0.33349454 -0.29999283 1.6220001 4290666754
0.33820003 -0.30147243 1.6300001 4290076931
0.34126067 -0.30147243 1.6300001 4289487618
0.34432131 -0.30147243 1.6300001 4289289217
0.34908688 -0.30295208 1.6380001 4289087756
0.3536675 -0.30424672 1.6450001 4288825879
0.3584913 -0.30572635 1.6530001 4288499476
0.36334512 -0.30720598 1.6610001 4288499218
0.36822897 -0.30868557 1.669 4288564236
0.37692553 -0.3133094 1.6940001 4288564742
0.38190138 -0.314789 1.702 4288564997
0.38509721 -0.314789 1.702 4289092100
0.39034629 -0.31645358 1.7110001 4289556742
0.39539915 -0.3179332 1.7190001 4286599688
0.40071395 -0.31959778 1.728 4283564292
0.40582877 -0.32107738 1.7360001 4283965441
0.40908846 -0.32107738 1.7360001 4284430093
0.41234812 -0.32107738 1.7360001 4284231193
-0.38454142 -0.3657833 1.9980001 4285429616
-0.37850276 -0.3635864 1.9860001 4285102204
-0.37477365 -0.3635864 1.9860001 4284835944
-0.37104458 -0.3635864 1.9860001 4286338388
-0.36528105 -0.36157259 1.9750001 4287926118
-0.35955876 -0.35955876 1.9640001 4288717688
-0.35587099 -0.35955876 1.9640001 4289506957
-0.35218319 -0.35955876 1.9640001 4289310370
-0.34849539 -0.35955876 1.9640001 4289112221
-0.34480762 -0.35955876 1.9640001 4289176984
-0.34303042 -0.36157259 1.9750001 4289244054
-0.33932197 -0.36157259 1.9750001 4289178773
-0.33561355 -0.36157259 1.9750001 4289112981
-0.3319051 -0.36157259 1.9750001 4289113492
-0.32819664 -0.36157259 1.9750001 4289179287
-0.3262955 -0.3635864 1.9860001 4289375898
-0.32256639 -0.3635864 1.9860001 4289637534
-0.31883731 -0.3635864 1.9860001 4289440930
-0.31510821 -0.3635864 1.9860001 4289244580
-0.31137913 -0.3635864 1.9860001 4289506727
-0.30765003 -0.3635864 1.9860001 4289768867
-0.30392095 -0.3635864 1.9860001 4289441183
-0.30019185 -0.3635864 1.9860001 4289179541
-0.29646277 -0.3635864 1.9860001 4289179788
-0.29450247 -0.3657833 1.9980001 4289179542
-0.29075083 -0.3657833 1.9980001 4289375905
-0.28527546 -0.3635864 1.9860001 4289637280
-0.28154638 -0.3635864 1.9860001 4289440415
-0.27781728 -0.3635864 1.9860001 4289243812
-0.27574435 -0.3657833 1.9980001 4289178026
0.17765194 -0.31781772 1.7360001 4285352194
0.18091163 -0.31781772 1.7360001 4285279234
0.18417129 -0.31781772 1.7360001 4284685826
0.18743096 -0.31781772 1.7360001 4284159233
0.19069062 -0.31781772 1.7360001 4284026369
0.19305651 -0.31635314 1.728 4283963393
0.19630118 -0.31635314 1.728 4283833857
0.19850652 -0.31470546 1.7190001 4283766785
0.20079543 -0.31324086 1.7110001 4283503873
0.20400815 -0.31324086 1.7110001 4283304705
0.20613086 -0.31159317 1.702 4282778625
0.2093267 -0.31159317 1.702 4282254849
0.21152361 -0.31012857 1.6940001 4283435009
0.21369046 -0.30866399 1.6860001 4284686082
0.21466966 -0.30555171 1.669 4286392836
0.21780352 -0.30555171 1.669 4288105228
0.21987839 -0.30408713 1.6610001 4287057940
0.22192319 -0.30262253 1.6530001 4286003978
0.22393794 -0.30115792 1.6450001 4285737473
0.22606069 -0.29987642 1.6380001 4285540097
0.22913633 -0.29987642 1.6380001 4286724610
0.23221198 -0.29987642 1.6380001 4287971842
0.23413849 -0.29841182 1.6300001 4288630019
0.23603496 -0.29694718 1.6220001 4289352706
0.23804879 -0.29566568 1.6150001 4289614593
0.24108127 -0.29566568 1.6150001 4289878017
0.24411371 -0.29566568 1.6150001 4290140674
0.24592192 -0.29420108 1.6070001 4290467077
0.24893939 -0.29420108 1.6070001 4290663944
0.25195682 -0.29420108 1.6070001 4290862086
0.25497428 -0.29420108 1.6070001 4291125509
0.25799173 -0.29420108 1.6070001 4291388169
0.26100916 -0.29420108 1.6070001 4291520525
0.26402661 -0.29420108 1.6070001 4291717127
0.26704407 -0.29420108 1.6070001 4291783426
0.27006149 -0.29420108 1.6070001 4291848976
0.27307898 -0.29420108 1.6070001 4291651614
0.2760964 -0.29420108 1.6070001 4291453468
0.27911386 -0.29420108 1.6070001 4291189530
0.28213131 -0.29420108 1.6070001 4290927889
0.28514874 -0.29420108 1.6070001 4291058953
0.2881662 -0.29420108 1.6070001 4291256075
0.29118365 -0.29420108 1.6070001 4291386894
0.29420108 -0.29420108 1.6070001 4291584786
0.29721853 -0.29420108 1.6070001 4291585814
0.30023599 -0.29420108 1.6070001 4291650830
0.30325341 -0.29420108 1.6070001 4291584774
0.30627087 -0.29420108 1.6070001 4291519252
0.30928832 -0.29420108 1.6070001 4291322146
0.31386051 -0.29566568 1.6150001 4291191315
0.31689298 -0.29566568 1.6150001 4291190533
0.31992543 -0.29566568 1.6150001 4291191811
0.3229579 -0.29566568 1.6150001 4291061761
0.32599038 -0.29566568 1.6150001 4290930177
0.32902282 -0.29566568 1.6150001 4290798594
0.3320553 -0.29566568 1.6150001 4290667010
0.33654019 -0.29694718 1.6220001 4290010882
0.34126067 -0.29841182 1.6300001 4289422082
0.34432131 -0.29841182 1.6300001 4289226498
0.34908688 -0.29987642 1.6380001 4289024778
0.3536675 -0.30115792 1.6450001 4288565265
0.3584913 -0.30262253 1.6530001 4288171533
0.36509511 -0.30555171 1.669 4288302345
0.36822897 -0.30555171 1.669 4288498951
0.37514547 -0.30866399 1.6860001 4288564740
0.38010633 -0.31012857 1.6940001 4288630276
0.38509721 -0.31159317 1.702 4289024772
0.39034629 -0.31324086 1.7110001 4289422341
0.39539915 -0.31470546 1.7190001 4286539014
0.40071395 -0.31635314 1.728 4283638531
0.40582877 -0.31781772 1.7360001 4284033025
0.41120932 -0.3194654 1.7450001 4284493068
0.4144859 -0.3194654 1.7450001 4284230424
-0.38454142 -0.36203167 1.9980001 4285495928
-0.38078979 -0.36203167 1.9980001 4285298053
-0.37477365 -0.35985729 1.9860001 4285098599
-0.37104458 -0.35985729 1.9860001 4286345802
-0.36528105 -0.35786414 1.9750001 4287671392
-0.36157259 -0.35786414 1.9750001 4288521846
-0.35786414 -0.35786414 1.9750001 4289379976
-0.35415572 -0.35786414 1.9750001 4289179546
-0.34849539 -0.35587099 1.9640001 4289046678
-0.34480762 -0.35587099 1.9640001 4289244050
-0.34303042 -0.35786414 1.9750001 4289376403
-0.33932197 -0.35786414 1.9750001 4289179540
-0.33561355 -0.35786414 1.9750001 4289047186
-0.3319051 -0.35786414 1.9750001 4289113488
-0.33002457 -0.35985729 1.9860001 4289180050
-0.3262955 -0.35985729 1.9860001 4289244820
-0.32256639 -0.35985729 1.9860001 4289375640
-0.31883731 -0.35985729 1.9860001 4289310364
-0.31510821 -0.35985729 1.9860001 4289179807
-0.31137913 -0.35985729 1.9860001 4289310115
-0.30765003 -0.35985729 1.9860001 4289440928
-0.30392095 -0.35985729 1.9860001 4289310109
-0.30019185 -0.35985729 1.9860001 4289114008
-0.29646277 -0.35985729 1.9860001 4289114004
-0.29450247 -0.36203167 1.9980001 4289179549
-0.29075083 -0.36203167 1.9980001 4289310119
-0.28699923 -0.36203167 1.9980001 4289441187
-0.28324759 -0.36203167 1.9980001 4289309344
-0.27949595 -0.36203167 1.9980001 4289178538
0.17857297 -0.31618884 1.7450001 4285740546
0.18091163 -0.31455803 1.7360001 4286263810
0.18417129 -0.31455803 1.7360001 4285147138
0.18743096 -0.31455803 1.7360001 4284028673
0.19069062 -0.31455803 1.7360001 4283963137
0.19305651 -0.31310844 1.728 4283899649
0.19630118 -0.31310844 1.728 4283767553
0.19850652 -0.31147772 1.7190001 4283636225
0.20079543 -0.31002814 1.7110001 4283438337
0.20400815 -0.31002814 1.7110001 4283306241
0.20613086 -0.30839732 1.702 4282911233
0.2093267 -0.30839732 1.702 4282517249
0.21152361 -0.30694777 1.6940001 4283634433
0.21470441 -0.30694777 1.6940001 4284689665
0.21569863 -0.30386743 1.677 4286264577
0.21780352 -0.30241784 1.669 4287844354
0.21881936 -0.2995187 1.6530001 4286989571
0.22084914 -0.29806912 1.6450001 4286131714
0.22393794 -0.29806912 1.6450001 4285934849
0.22606069 -0.29680076 1.6380001 4285738498
0.22913633 -0.29680076 1.6380001 4286788867
0.23221198 -0.29680076 1.6380001 4287844610
0.23413849 -0.29535118 1.6300001 4288434178
0.23603496 -0.29390159 1.6220001 4289026049
0.23908058 -0.29390159 1.6220001 4289482241
0.24108127 -0.29263324 1.6150001 4289875201
0.24411371 -0.29263324 1.6150001 4290138625
0.24592192 -0.29118365 1.6070001 4290400257
0.24893939 -0.29118365 1.6070001 4290467073
0.25195682 -0.29118365 1.6070001 4290599425
0.25497428 -0.29118365 1.6070001 4290993921
0.25799173 -0.29118365 1.6070001 4291387906
0.26100916 -0.29118365 1.6070001 4291520260
0.26402661 -0.29118365 1.6070001 4291719427
0.26704407 -0.29118365 1.6070001 4291849475
0.26888511 -0.28991526 1.6 4292046111
0.27188942 -0.28991526 1.6 4291848507
0.2760964 -0.29118365 1.6070001 4291649834
0.27789804 -0.28991526 1.6 4291257113
0.28090236 -0.28991526 1.6 4290797069
0.28514874 -0.29118365 1.6070001 4290994177
0.28691095 -0.28991526 1.6 4291125510
0.28991526 -0.28991526 1.6 4291322891
0.29420108 -0.29118365 1.6070001 4291454736
0.29721853 -0.29118365 1.6070001 4291585813
0.30023599 -0.29118365 1.6070001 4291717135
0.30325341 -0.29118365 1.6070001 4291586057
0.30627087 -0.29118365 1.6070001 4291456038
0.30928832 -0.29118365 1.6070001 4291324227
0.31230578 -0.29118365 1.6070001 4291194148
0.31532323 -0.29118365 1.6070001 4291126021
0.31992543 -0.29263324 1.6150001 4291060483
0.3229579 -0.29263324 1.6150001 4290929921
0.32599038 -0.29263324 1.6150001 4290864642
0.32902282 -0.29263324 1.6150001 4290667779
0.3320553 -0.29263324 1.6150001 4290536706
0.33654019 -0.29390159 1.6220001 4290077954
0.34126067 -0.29535118 1.6300001 4289684739
0.34432131 -0.29535118 1.6300001 4289158404
0.34908688 -0.29680076 1.6380001 4288695560
0.3536675 -0.29806912 1.6450001 4288498956
0.3584913 -0.2995187 1.6530001 4288302342
0.36509511 -0.30241784 1.669 4288433409
0.36999401 -0.30386743 1.677 4288499458
0.37514547 -0.30549818 1.6860001 4288564483
0.38010633 -0.30694777 1.6940001 4288694531
0.38509721 -0.30839732 1.702 4289090820
0.39034629 -0.31002814 1.7110001 4289489156
0.39539915 -0.31147772 1.7190001 4286598148
0.40071395 -0.31310844 1.728 4283695362
0.40395859 -0.31310844 1.728 4284160513
0.40908846 -0.31455803 1.7360001 4284689420
0.4144859 -0.31618884 1.7450001 4284426775
-0.38078979 -0.35828006 1.9980001 4285430646
-0.37477365 -0.35612822 1.9860001 4285361251
-0.37104458 -0.35612822 1.9860001 4286406224
-0.36528105 -0.35415572 1.9750001 4287465828
-0.36157259 -0.35415572 1.9750001 4288319096
-0.35786414 -0.35415572 1.9750001 4289244045
-0.35415572 -0.35415572 1.9750001 4289112739
-0.34849539 -0.35218319 1.9640001 4289047450
-0.34480762 -0.35218319 1.9640001 4289311378
-0.34303042 -0.35415572 1.9750001 4289572751
-0.33932197 -0.35415572 1.9750001 4289246861
-0.33561355 -0.35415572 1.9750001 4288982415
-0.33375368 -0.35612822 1.9860001 4289047954
-0.33002457 -0.35612822 1.9860001 4289179281
-0.3262955 -0.35612822 1.9860001 4289179024
-0.32256639 -0.35612822 1.9860001 4289179285
-0.31883731 -0.35612822 1.9860001 4289179802
-0.31510821 -0.35612822 1.9860001 4289179548
-0.31137913 -0.35612822 1.9860001 4289179294
-0.30765003 -0.35612822 1.9860001 4289179292
-0.30392095 -0.35612822 1.9860001 4289113755
-0.30019185 -0.35612822 1.9860001 4289113752
-0.2982541 -0.35828006 1.9980001 4289113750
-0.29450247 -0.35828006 1.9980001 4289179035
-0.29075083 -0.35828006 1.9980001 4289244575
-0.28699923 -0.35828006 1.9980001 4289309848
-0.28324759 -0.35828006 1.9980001 4289177489
-0.27949595 -0.35828006 1.9980001 4289112732
0.17857297 -0.31291226 1.7450001 4286130177
0.18091163 -0.3112984 1.7360001 4287312641
0.18417129 -0.3112984 1.7360001 4285610753
0.18743096 -0.3112984 1.7360001 4283900673
0.19069062 -0.3112984 1.7360001 4283832577
0.19305651 -0.30986381 1.728 4283832321
0.19630118 -0.30986381 1.728 4283635457
0.19850652 -0.30824995 1.7190001 4283504641
0.20173427 -0.30824995 1.7190001 4283438337
0.20400815 -0.30681542 1.7110001 4283372033
0.20613086 -0.3052015 1.702 4283108865
0.2093267 -0.3052015 1.702 4282846721
0.21152361 -0.30376697 1.6940001 4283764993
0.21470441 -0.30376697 1.6940001 4284752129
0.21569863 -0.30071855 1.677 4286131457
0.21675953 -0.29784945 1.6610001 4287579650
0.21881936 -0.29641488 1.6530001 4286924803
0.22084914 -0.29498032 1.6450001 4286264834
0.22393794 -0.29498032 1.6450001 4286066945
0.22606069 -0.2937251 1.6380001 4285933826
0.22913633 -0.2937251 1.6380001 4286782979
0.23107786 -0.29229054 1.6300001 4287709954
0.23413849 -0.29229054 1.6300001 4288236545
0.23603496 -0.290856 1.6220001 4288760065
0.23804879 -0.28960076 1.6150001 4289348098
0.24108127 -0.28960076 1.6150001 4289941250
0.24290448 -0.2881662 1.6070001 4290138626
0.24592192 -0.2881662 1.6070001 4290336257
0.24893939 -0.2881662 1.6070001 4290336513
0.25195682 -0.2881662 1.6070001 4290402817
0.25497428 -0.2881662 1.6070001 4290928385
0.25799173 -0.2881662 1.6070001 4291453185
0.26100916 -0.2881662 1.6070001 4291584770
0.26402661 -0.2881662 1.6070001 4291717634
0.26704407 -0.2881662 1.6070001 4291980802
0.26888511 -0.28691095 1.6 4292242448
0.27188942 -0.28691095 1.6 4292046622
0.27489373 -0.28691095 1.6 4291914774
0.27789804 -0.28691095 1.6 4291327245
0.28090236 -0.28691095 1.6 4290734087
0.28514874 -0.2881662 1.6070001 4290864642
0.28691095 -0.28691095 1.6 4291060998
0.28991526 -0.28691095 1.6 4291193355
0.29420108 -0.2881662 1.6070001 4291389469
0.29721853 -0.2881662 1.6070001 4291586095
0.30023599 -0.2881662 1.6070001 4291782941
0.30325341 -0.2881662 1.6070001 4291587083
0.30627087 -0.2881662 1.6070001 4291389728
0.30928832 -0.2881662 1.6070001 4291259446
0.31230578 -0.2881662 1.6070001 4291192093
0.31532323 -0.2881662 1.6070001 4291059716
0.31834066 -0.2881662 1.6070001 4290994692
0.32135811 -0.2881662 1.6070001 4290864645
0.32437557 -0.2881662 1.6070001 4290798867
0.327393 -0.2881662 1.6070001 4290602785
0.3320553 -0.28960076 1.6150001 4290406417
0.33654019 -0.290856 1.6220001 4290145026
0.33958578 -0.290856 1.6220001 4289946125
0.34432131 -0.29229054 1.6300001 4289157911
0.34908688 -0.2937251 1.6380001 4288433935
0.3536675 -0.29498032 1.6450001 4288433158
0.36196125 -0.29928395 1.669 4288498691
0.36509511 -0.29928395 1.669 4288498689
