# .PCD v0.7 - Point Cloud Data file format
VERSION 0.7
FIELDS x y z rgba
SIZE 4 4 4 4
TYPE F F F U
COUNT 1 1 1 1
WIDTH 1073
HEIGHT 1
VIEWPOINT 0 0 0 1 0 0 0
POINTS 1073
DATA ascii
-0.30950895 -0.23072486 1.9980001 4289179284
-0.30575731 -0.23072486 1.9980001 4289113221
-0.041221857 -0.22044732 1.909 4279831299
-0.037637345 -0.22044732 1.909 4279176194
-0.034052834 -0.22044732 1.909 4279108097
-0.030468326 -0.22044732 1.909 4279046401
-0.026883818 -0.22044732 1.909 4280091394
-0.023177259 -0.21929254 1.899 4281146115
-0.019611526 -0.21929254 1.899 4282522884
-0.016045794 -0.21929254 1.899 4283965701
-0.012480062 -0.21929254 1.899 4285408005
-0.0089612724 -0.22044732 1.909 4286918659
-0.0053767636 -0.22044732 1.909 4287055105
-0.0017922545 -0.22044732 1.909 4287184386
0.0017922545 -0.22044732 1.909 4287316738
0.0053767636 -0.22044732 1.909 4287514372
0.0089612724 -0.22044732 1.909 4287386119
0.012545781 -0.22044732 1.909 4287252228
0.016130291 -0.22044732 1.909 4284304130
0.019714801 -0.22044732 1.909 4281406466
0.02329931 -0.22044732 1.909 4281991939
0.026742991 -0.21929254 1.899 4282649602
0.030308723 -0.21929254 1.899 4283176961
0.033678237 -0.21802229 1.8880001 4283766786
0.037223317 -0.21802229 1.8880001 4284028163
0.040768396 -0.21802229 1.8880001 4284356099
0.043844048 -0.21571273 1.868 4284685827
0.047098082 -0.21455795 1.858 4285081858
0.050042301 -0.21224838 1.8380001 4285410817
0.053493492 -0.21224838 1.8380001 4285804801
0.056634869 -0.2110936 1.8280001 4285936385
0.059771553 -0.21005431 1.8190001 4286067457
0.063187063 -0.21005431 1.8190001 4286330113
0.06660258 -0.21005431 1.8190001 4286591233
0.069633178 -0.20889953 1.8090001 4286853121
0.073029913 -0.20889953 1.8090001 4287115521
0.076426655 -0.20889953 1.8090001 4287116289
0.079426266 -0.20786022 1.8000001 4287181825
0.082806103 -0.20786022 1.8000001 4287182081
0.086185947 -0.20786022 1.8000001 4287181825
0.089565784 -0.20786022 1.8000001 4287246849
0.092945635 -0.20786022 1.8000001 4287313153
0.095790327 -0.20670545 1.7900001 4287313921
0.099151395 -0.20670545 1.7900001 4287379969
0.10199703 -0.20566615 1.7810001 4287578113
0.1053412 -0.20566615 1.7810001 4287838977
0.10868536 -0.20566615 1.7810001 4288100353
0.11146341 -0.20462684 1.7720001 4288365827
0.11479067 -0.20462684 1.7720001 4288500485
0.11811794 -0.20462684 1.7720001 4288694550
0.12144519 -0.20462684 1.7720001 4288891174
0.12477247 -0.20462684 1.7720001 4289088275
0.12809972 -0.20462684 1.7720001 4289089281
0.13142699 -0.20462684 1.7720001 4289154561
0.13475427 -0.20462684 1.7720001 4289285633
0.13878286 -0.20566615 1.7810001 4289481217
0.14212701 -0.20566615 1.7810001 4289547777
0.14547117 -0.20566615 1.7810001 4289613057
0.14881535 -0.20566615 1.7810001 4289547777
0.15215951 -0.20566615 1.7810001 4289481729
0.15550368 -0.20566615 1.7810001 4289548033
0.15965055 -0.20670545 1.7900001 4289613057
0.16301161 -0.20670545 1.7900001 4289807873
0.16637267 -0.20670545 1.7900001 4290004993
0.16973373 -0.20670545 1.7900001 4289478913
0.17309481 -0.20670545 1.7900001 4289021445
0.17744164 -0.20786022 1.8000001 4288758794
0.17981693 -0.20670545 1.7900001 4288562182
0.18317801 -0.20670545 1.7900001 4287709953
0.18653905 -0.20670545 1.7900001 4286916353
0.18894534 -0.20566615 1.7810001 4286654209
0.19228949 -0.20566615 1.7810001 4286458369
0.19464505 -0.20462684 1.7720001 4286588673
0.19797231 -0.20462684 1.7720001 4286721025
0.20129958 -0.20462684 1.7720001 4286919681
0.20462684 -0.20462684 1.7720001 4287182337
0.20795411 -0.20462684 1.7720001 4287380225
0.21020828 -0.20358755 1.7630001 4287642369
0.21351865 -0.20358755 1.7630001 4287578113
0.21682902 -0.20358755 1.7630001 4287577869
0.21901558 -0.20254824 1.7540001 4287381274
0.22230904 -0.20254824 1.7540001 4287249933
0.22560251 -0.20254824 1.7540001 4286855681
0.2277215 -0.20150894 1.7450001 4286460417
0.23099805 -0.20150894 1.7450001 4286655233
0.23427463 -0.20150894 1.7450001 4286916097
0.23632599 -0.20046964 1.7360001 4287109633
0.23958567 -0.20046964 1.7360001 4287379201
0.24284533 -0.20046964 1.7360001 4288366593
0.24610502 -0.20046964 1.7360001 4289350145
0.24936466 -0.20046964 1.7360001 4289416705
0.25262433 -0.20046964 1.7360001 4289547521
0.25588399 -0.20046964 1.7360001 4289613057
0.25914368 -0.20046964 1.7360001 4289744144
0.26240334 -0.20046964 1.7360001 4289613344
0.26704031 -0.20150894 1.7450001 4289481745
0.27031687 -0.20150894 1.7450001 4289088770
0.27641562 -0.20358755 1.7630001 4288692481
0.27972597 -0.20358755 1.7630001 4288429569
0.28303635 -0.20358755 1.7630001 4288233985
0.2863467 -0.20358755 1.7630001 4287908354
0.28965709 -0.20358755 1.7630001 4287577601
0.29296744 -0.20358755 1.7630001 4287444993
0.29627782 -0.20358755 1.7630001 4287378689
0.29958817 -0.20358755 1.7630001 4287575553
0.30289856 -0.20358755 1.7630001 4287837441
0.30620891 -0.20358755 1.7630001 4287575297
0.30951929 -0.20358755 1.7630001 4287313153
0.31442663 -0.20462684 1.7720001 4287051521
0.31775388 -0.20462684 1.7720001 4286789132
0.32108113 -0.20462684 1.7720001 4286658071
0.32440841 -0.20462684 1.7720001 4286529555
0.32773566 -0.20462684 1.7720001 4284238095
0.33274442 -0.20566615 1.7810001 4281996043
0.33608857 -0.20566615 1.7810001 4282188295
0.33943275 -0.20566615 1.7810001 4282450949
0.34277692 -0.20566615 1.7810001 4282516482
0.34612107 -0.20566615 1.7810001 4282583297
0.34769928 -0.20462684 1.7720001 4281864449
0.3492437 -0.20358755 1.7630001 4281141249
0.35075426 -0.20254824 1.7540001 4281009665
0.35404775 -0.20254824 1.7540001 4280879874
0.35367405 -0.20046964 1.7360001 4280750339
0.35693374 -0.20046964 1.7360001 4280684548
0.3601934 -0.20046964 1.7360001 4280619526
0.36345309 -0.20046964 1.7360001 4280553732
0.36502284 -0.19954582 1.728 4280226050
0.36826748 -0.19954582 1.728 4279899397
0.37151212 -0.19954582 1.728 4280292359
0.37475675 -0.19954582 1.728 4280751879
0.37800142 -0.19954582 1.728 4280688647
0.37926042 -0.19850652 1.7190001 4280624135
0.38248816 -0.19850652 1.7190001 4281084680
0.38571593 -0.19850652 1.7190001 4281544468
0.38894367 -0.19850652 1.7190001 4281414176
0.39422467 -0.19954582 1.728 4281282323
0.39746931 -0.19954582 1.728 4281085703
0.40071395 -0.19954582 1.728 4280953358
0.40395859 -0.19954582 1.728 4280953109
0.40720323 -0.19954582 1.728 4280951827
0.4104479 -0.19954582 1.728 4281083666
0.41369253 -0.19954582 1.728 4281213717
0.41693717 -0.19954582 1.728 4281410328
0.42018181 -0.19954582 1.728 4281607966
0.42538679 -0.20046964 1.7360001 4282984996
0.42864648 -0.20046964 1.7360001 4284361007
0.43190613 -0.20046964 1.7360001 4283903802
-0.38078979 -0.22697322 1.9980001 4285822054
-0.37477365 -0.22561002 1.9860001 4285822046
-0.37104458 -0.22561002 1.9860001 4285560150
-0.36731547 -0.22561002 1.9860001 4285364067
-0.36157259 -0.22436044 1.9750001 4287332209
-0.35786414 -0.22436044 1.9750001 4289315976
-0.35415572 -0.22436044 1.9750001 4289246367
-0.35044727 -0.22436044 1.9750001 4289113499
-0.34673882 -0.22436044 1.9750001 4289113752
-0.34494093 -0.22561002 1.9860001 4289179292
-0.34121186 -0.22561002 1.9860001 4289114529
-0.33748275 -0.22561002 1.9860001 4289052076
-0.33375368 -0.22561002 1.9860001 4289180600
-0.33002457 -0.22561002 1.9860001 4289310386
-0.3262955 -0.22561002 1.9860001 4289244844
-0.32451543 -0.22697322 1.9980001 4289244583
-0.32076383 -0.22697322 1.9980001 4289178531
-0.31701219 -0.22697322 1.9980001 4289179046
-0.31326056 -0.22697322 1.9980001 4289244841
-0.30950895 -0.22697322 1.9980001 4289310865
-0.037637345 -0.2168628 1.909 4279636227
-0.034052834 -0.2168628 1.909 4279634945
-0.030468326 -0.2168628 1.909 4279699457
-0.026883818 -0.2168628 1.909 4280223745
-0.023177259 -0.21572681 1.899 4280747009
-0.019611526 -0.21572681 1.899 4281273601
-0.016045794 -0.21572681 1.899 4281861377
-0.012480062 -0.21572681 1.899 4282520321
-0.0089612724 -0.2168628 1.909 4283176705
-0.0053767636 -0.2168628 1.909 4283246337
-0.0017828661 -0.21572681 1.899 4283383553
0.0017828661 -0.21572681 1.899 4283839490
0.0053767636 -0.2168628 1.909 4284304390
0.0089612724 -0.2168628 1.909 4284430603
0.012545781 -0.2168628 1.909 4284630023
0.016130291 -0.2168628 1.909 4282984707
0.019714801 -0.2168628 1.909 4281336068
0.02329931 -0.2168628 1.909 4281533189
0.026742991 -0.21572681 1.899 4281796867
0.030308723 -0.21572681 1.899 4282846977
0.033874456 -0.21572681 1.899 4283898369
0.037223317 -0.21447721 1.8880001 4284028417
0.040768396 -0.21447721 1.8880001 4284223235
0.044078764 -0.21334121 1.8780001 4284619270
0.047098082 -0.2110692 1.858 4285018627
0.050042301 -0.20879719 1.8380001 4285345537
0.053202454 -0.20766118 1.8280001 4285607425
0.056634869 -0.20766118 1.8280001 4285804801
0.059771553 -0.2066388 1.8190001 4286067969
0.063187063 -0.2066388 1.8190001 4286264577
0.06660258 -0.2066388 1.8190001 4286461697
0.069633178 -0.20550279 1.8090001 4286722561
0.073029913 -0.20550279 1.8090001 4286983681
0.076426655 -0.20550279 1.8090001 4287050753
0.079426266 -0.20448038 1.8000001 4287116289
0.082806103 -0.20448038 1.8000001 4287182081
0.086185947 -0.20448038 1.8000001 4287182337
0.089565784 -0.20448038 1.8000001 4287247617
0.092945635 -0.20448038 1.8000001 4287313409
0.095790327 -0.20334439 1.7900001 4287378945
0.099151395 -0.20334439 1.7900001 4287444737
0.10251246 -0.20334439 1.7900001 4287641857
0.1053412 -0.20232199 1.7810001 4287838721
0.10868536 -0.20232199 1.7810001 4288101121
0.11146341 -0.20129958 1.7720001 4288364292
0.11479067 -0.20129958 1.7720001 4288495624
0.11811794 -0.20129958 1.7720001 4288625169
0.12144519 -0.20129958 1.7720001 4288758298
0.12477247 -0.20129958 1.7720001 4288956429
0.12809972 -0.20129958 1.7720001 4289022721
0.13142699 -0.20129958 1.7720001 4289089281
0.13475427 -0.20129958 1.7720001 4289217793
0.13808152 -0.20129958 1.7720001 4289347585
0.1414088 -0.20129958 1.7720001 4289414913
0.14547117 -0.20232199 1.7810001 4289548801
0.14881535 -0.20232199 1.7810001 4289613313
0.15215951 -0.20232199 1.7810001 4289612801
0.15550368 -0.20232199 1.7810001 4289613569
0.15965055 -0.20334439 1.7900001 4289615105
0.16301161 -0.20334439 1.7900001 4289678850
0.16637267 -0.20334439 1.7900001 4289743361
0.16973373 -0.20334439 1.7900001 4289415425
0.17309481 -0.20334439 1.7900001 4289088257
0.17645587 -0.20334439 1.7900001 4288759553
0.17981693 -0.20334439 1.7900001 4288495105
0.18317801 -0.20334439 1.7900001 4287772417
0.18653905 -0.20334439 1.7900001 4287111681
0.18894534 -0.20232199 1.7810001 4286785281
0.19228949 -0.20232199 1.7810001 4286524673
0.19464505 -0.20129958 1.7720001 4286523137
0.19797231 -0.20129958 1.7720001 4286589185
0.20129958 -0.20129958 1.7720001 4286787073
0.20462684 -0.20129958 1.7720001 4287050497
0.20795411 -0.20129958 1.7720001 4287248641
0.21020828 -0.20027718 1.7630001 4287512065
0.21351865 -0.20027718 1.7630001 4287512321
0.21682902 -0.20027718 1.7630001 4287578906
0.21901558 -0.19925477 1.7540001 4287513139
0.22230904 -0.19925477 1.7540001 4287513370
0.22560251 -0.19925477 1.7540001 4287183361
0.2277215 -0.19823238 1.7450001 4286917633
0.23099805 -0.19823238 1.7450001 4286917633
0.23427463 -0.19823238 1.7450001 4286982401
0.23632599 -0.19720995 1.7360001 4287113729
0.23958567 -0.19720995 1.7360001 4287250689
0.24284533 -0.19720995 1.7360001 4288233474
0.24610502 -0.19720995 1.7360001 4289219842
0.24936466 -0.19720995 1.7360001 4289350914
0.25262433 -0.19720995 1.7360001 4289481729
0.25588399 -0.19720995 1.7360001 4289613057
0.25914368 -0.19720995 1.7360001 4289744416
0.26240334 -0.19720995 1.7360001 4289613887
0.26704031 -0.19823238 1.7450001 4289547553
0.27031687 -0.19823238 1.7450001 4289152516
0.27641562 -0.20027718 1.7630001 4288758018
0.27972597 -0.20027718 1.7630001 4288429569
0.28303635 -0.20027718 1.7630001 4288166913
0.2863467 -0.20027718 1.7630001 4287773698
0.28965709 -0.20027718 1.7630001 4287444993
0.29296744 -0.20027718 1.7630001 4287312641
0.29627782 -0.20027718 1.7630001 4287180801
0.29958817 -0.20027718 1.7630001 4287310849
0.30444479 -0.20129958 1.7720001 4287444481
0.30620891 -0.20027718 1.7630001 4287313153
0.30951929 -0.20027718 1.7630001 4287182081
0.31442663 -0.20129958 1.7720001 4286985985
0.31775388 -0.20129958 1.7720001 4286789890
0.32108113 -0.20129958 1.7720001 4286724611
0.32440841 -0.20129958 1.7720001 4286661379
0.32773566 -0.20129958 1.7720001 4284299011
0.33274442 -0.20232199 1.7810001 4281925896
0.33608857 -0.20232199 1.7810001 4282057486
0.33943275 -0.20232199 1.7810001 4282255113
0.34450907 -0.20334439 1.7900001 4282189316
0.34787014 -0.20334439 1.7900001 4282124802
0.34946525 -0.20232199 1.7810001 4281731841
0.3492437 -0.20027718 1.7630001 4281337601
0.35075426 -0.19925477 1.7540001 4281076225
0.35404775 -0.19925477 1.7540001 4280815362
0.35367405 -0.19720995 1.7360001 4280684292
0.35693374 -0.19720995 1.7360001 4280552454
0.3601934 -0.19720995 1.7360001 4280487689
0.36345309 -0.19720995 1.7360001 4280488710
0.36671275 -0.19720995 1.7360001 4280292868
0.36826748 -0.19630118 1.728 4280163847
0.37151212 -0.19630118 1.728 4280293642
0.37475675 -0.19630118 1.728 4280489994
0.37800142 -0.19630118 1.728 4280229387
0.37926042 -0.19527876 1.7190001 4279969542
0.38248816 -0.19527876 1.7190001 4280888065
0.38571593 -0.19527876 1.7190001 4281806859
0.38894367 -0.19527876 1.7190001 4281544470
0.39217141 -0.19527876 1.7190001 4281281808
0.39539915 -0.19527876 1.7190001 4281084426
0.39862689 -0.19527876 1.7190001 4280952345
0.40395859 -0.19630118 1.728 4280885545
0.40720323 -0.19630118 1.728 4280819487
0.4104479 -0.19630118 1.728 4280950549
0.41369253 -0.19630118 1.728 4281081625
0.41693717 -0.19630118 1.728 4281279517
0.42018181 -0.19630118 1.728 4281411878
0.42538679 -0.19720995 1.7360001 4282854192
0.42864648 -0.19720995 1.7360001 4284296509
0.43190613 -0.19720995 1.7360001 4283967306
-0.38078979 -0.22322161 1.9980001 4285887849
-0.37703818 -0.22322161 1.9980001 4285887842
-0.37104458 -0.22188094 1.9860001 4285560155
-0.36731547 -0.22188094 1.9860001 4285230180
-0.36157259 -0.220652 1.9750001 4287324525
-0.35786414 -0.220652 1.9750001 4289505674
-0.35415572 -0.220652 1.9750001 4289312424
-0.35044727 -0.220652 1.9750001 4289180063
-0.34673882 -0.220652 1.9750001 4289114518
-0.34494093 -0.22188094 1.9860001 4289113498
-0.34121186 -0.22188094 1.9860001 4289178526
-0.33748275 -0.22188094 1.9860001 4289245856
-0.33375368 -0.22188094 1.9860001 4289245857
-0.33002457 -0.22188094 1.9860001 4289310628
-0.3262955 -0.22188094 1.9860001 4289310886
-0.32451543 -0.22322161 1.9980001 4289310117
-0.32076383 -0.22322161 1.9980001 4289243556
-0.31701219 -0.22322161 1.9980001 4289244322
-0.31326056 -0.22322161 1.9980001 4289310881
-0.30950895 -0.22322161 1.9980001 4289441684
-0.037637345 -0.21327829 1.909 4280161282
-0.034052834 -0.21327829 1.909 4280227329
-0.030468326 -0.21327829 1.909 4280356865
-0.026883818 -0.21327829 1.909 4280357121
-0.02329931 -0.21327829 1.909 4280421633
-0.019714801 -0.21327829 1.909 4280094721
-0.016130291 -0.21327829 1.909 4279766529
-0.012545781 -0.21327829 1.909 4279569922
-0.0089612724 -0.21327829 1.909 4279439619
-0.0053767636 -0.21327829 1.909 4279501829
-0.0017828661 -0.21216106 1.899 4279570948
0.0017828661 -0.21216106 1.899 4280353539
0.0053767636 -0.21327829 1.909 4281144836
0.0089612724 -0.21327829 1.909 4281533190
0.012545781 -0.21327829 1.909 4281997321
0.016130291 -0.21327829 1.909 4281603084
0.019714801 -0.21327829 1.909 4281271561
0.02329931 -0.21327829 1.909 4281139463
0.026883818 -0.21327829 1.909 4281008900
0.030308723 -0.21216106 1.899 4282515969
0.033874456 -0.21216106 1.899 4284094209
0.037440188 -0.21216106 1.899 4284095233
0.040768396 -0.21093212 1.8880001 4284092418
0.044078764 -0.20981491 1.8780001 4284549891
0.046844594 -0.20646322 1.848 4285014786
0.049770035 -0.20422877 1.8280001 4285214209
0.053202454 -0.20422877 1.8280001 4285476353
0.056634869 -0.20422877 1.8280001 4285738498
0.059771553 -0.20322327 1.8190001 4286066946
0.063187063 -0.20322327 1.8190001 4286199042
0.06660258 -0.20322327 1.8190001 4286395649
0.069633178 -0.20210604 1.8090001 4286657281
0.073029913 -0.20210604 1.8090001 4286920193
0.076426655 -0.20210604 1.8090001 4286987265
0.079426266 -0.20110054 1.8000001 4287117057
0.082806103 -0.20110054 1.8000001 4287182337
0.086185947 -0.20110054 1.8000001 4287247873
0.089565784 -0.20110054 1.8000001 4287247873
0.092945635 -0.20110054 1.8000001 4287313157
0.095790327 -0.19998331 1.7900001 4287378697
0.099151395 -0.19998331 1.7900001 4287509509
0.10251246 -0.19998331 1.7900001 4287640833
0.1053412 -0.19897781 1.7810001 4287837953
0.10868536 -0.19897781 1.7810001 4288101121
0.11146341 -0.19797231 1.7720001 4288363266
0.11479067 -0.19797231 1.7720001 4288493316
0.11811794 -0.19797231 1.7720001 4288625933
0.12144519 -0.19797231 1.7720001 4288692246
0.12477247 -0.19797231 1.7720001 4288824846
0.12809972 -0.19797231 1.7720001 4288891143
0.13142699 -0.19797231 1.7720001 4289020932
0.13475427 -0.19797231 1.7720001 4289083649
0.13808152 -0.19797231 1.7720001 4289216001
0.1414088 -0.19797231 1.7720001 4289346561
0.14473605 -0.19797231 1.7720001 4289547009
0.14881535 -0.19897781 1.7810001 4289679105
0.15215951 -0.19897781 1.7810001 4289809665
0.15628947 -0.19998331 1.7900001 4289679105
0.15965055 -0.19998331 1.7900001 4289614081
0.16301161 -0.19998331 1.7900001 4289549057
0.16637267 -0.19998331 1.7900001 4289547521
0.16973373 -0.19998331 1.7900001 4289351169
0.17406182 -0.20110054 1.8000001 4289219841
0.17645587 -0.19998331 1.7900001 4288827393
0.17981693 -0.19998331 1.7900001 4288431361
0.18317801 -0.19998331 1.7900001 4287904258
0.18653905 -0.19998331 1.7900001 4287376385
0.18894534 -0.19897781 1.7810001 4286981633
0.19228949 -0.19897781 1.7810001 4286588929
0.19464505 -0.19797231 1.7720001 4286521857
0.19797231 -0.19797231 1.7720001 4286457857
0.20129958 -0.19797231 1.7720001 4286654977
0.20462684 -0.19797231 1.7720001 4286918913
0.20795411 -0.19797231 1.7720001 4287117313
0.21020828 -0.19696681 1.7630001 4287379713
0.21351865 -0.19696681 1.7630001 4287446274
0.21682902 -0.19696681 1.7630001 4287578382
0.21901558 -0.19596131 1.7540001 4287710234
0.22230904 -0.19596131 1.7540001 4287840781
0.22560251 -0.19596131 1.7540001 4287578625
0.2277215 -0.19495581 1.7450001 4287378945
0.23099805 -0.19495581 1.7450001 4287180801
0.23427463 -0.19495581 1.7450001 4287047937
0.23632599 -0.19395031 1.7360001 4287047169
0.23958567 -0.19395031 1.7360001 4287114754
0.24284533 -0.19395031 1.7360001 4288097538
0.24610502 -0.19395031 1.7360001 4289084162
0.24936466 -0.19395031 1.7360001 4289285889
0.25262433 -0.19395031 1.7360001 4289482241
0.25588399 -0.19395031 1.7360001 4289613313
0.25914368 -0.19395031 1.7360001 4289810960
0.26240334 -0.19395031 1.7360001 4289681440
0.26704031 -0.19495581 1.7450001 4289612817
0.27031687 -0.19495581 1.7450001 4289216259
0.27641562 -0.19696681 1.7630001 4288889090
0.27972597 -0.19696681 1.7630001 4288495105
0.28303635 -0.19696681 1.7630001 4288100097
0.2863467 -0.19696681 1.7630001 4287705601
0.28965709 -0.19696681 1.7630001 4287377921
0.29296744 -0.19696681 1.7630001 4287180033
0.29627782 -0.19696681 1.7630001 4286981633
0.29958817 -0.19696681 1.7630001 4286977025
0.30289856 -0.19696681 1.7630001 4287048193
0.30620891 -0.19696681 1.7630001 4287051009
0.30951929 -0.19696681 1.7630001 4287116545
0.31282964 -0.19696681 1.7630001 4286986241
0.31614003 -0.19696681 1.7630001 4286854913
0.32108113 -0.19797231 1.7720001 4286789122
0.32440841 -0.19797231 1.7720001 4286792706
0.32773566 -0.19797231 1.7720001 4284305410
0.33274442 -0.19897781 1.7810001 4281865482
0.33608857 -0.19897781 1.7810001 4281926418
0.33943275 -0.19897781 1.7810001 4282057738
0.34450907 -0.19998331 1.7900001 4281861122
0.34787014 -0.19998331 1.7900001 4281731330
0.35123122 -0.19998331 1.7900001 4281601026
0.35102654 -0.19797231 1.7720001 4281534984
0.35255405 -0.19696681 1.7630001 4281142286
0.35586441 -0.19696681 1.7630001 4280749322
0.35367405 -0.19395031 1.7360001 4280619014
0.35693374 -0.19395031 1.7360001 4280487177
0.3601934 -0.19395031 1.7360001 4280421899
0.36345309 -0.19395031 1.7360001 4280423180
0.36502284 -0.19305651 1.728 4280424717
0.36826748 -0.19305651 1.728 4280424980
0.37151212 -0.19305651 1.728 4280359708
0.37475675 -0.19305651 1.728 4280293651
0.37800142 -0.19305651 1.728 4279770123
0.37926042 -0.19205101 1.7190001 4279313419
0.38248816 -0.19205101 1.7190001 4280691723
0.38571593 -0.19205101 1.7190001 4282069016
0.38894367 -0.19205101 1.7190001 4281675558
0.39217141 -0.19205101 1.7190001 4281281562
0.39539915 -0.19205101 1.7190001 4281083919
0.40071395 -0.19305651 1.728 4280951060
0.40395859 -0.19305651 1.728 4280817946
0.40720323 -0.19305651 1.728 4280752919
0.4104479 -0.19305651 1.728 4280882963
0.41369253 -0.19305651 1.728 4281016086
0.41693717 -0.19305651 1.728 4281149209
0.42018181 -0.19305651 1.728 4281280800
0.42538679 -0.19395031 1.7360001 4282723623
0.42864648 -0.19395031 1.7360001 4284229931
0.43190613 -0.19395031 1.7360001 4284033327
-0.37703818 -0.21946999 1.9980001 4285757286
-0.37104458 -0.21815182 1.9860001 4285428320
-0.36731547 -0.21815182 1.9860001 4285096804
-0.36157259 -0.21694355 1.9750001 4287330921
-0.35786414 -0.21694355 1.9750001 4289579917
-0.35415572 -0.21694355 1.9750001 4289444529
-0.35044727 -0.21694355 1.9750001 4289310883
-0.34673882 -0.21694355 1.9750001 4289245077
-0.34303042 -0.21694355 1.9750001 4289179032
-0.34121186 -0.21815182 1.9860001 4289244572
-0.33748275 -0.21815182 1.9860001 4289310611
-0.33375368 -0.21815182 1.9860001 4289376139
-0.33002457 -0.21815182 1.9860001 4289507222
-0.3262955 -0.21815182 1.9860001 4289376417
-0.32451543 -0.21946999 1.9980001 4289311139
-0.32076383 -0.21946999 1.9980001 4289179045
-0.31701219 -0.21946999 1.9980001 4289112991
-0.31326056 -0.21946999 1.9980001 4289245081
-0.30950895 -0.21946999 1.9980001 4289376664
-0.037637345 -0.20969379 1.909 4280226049
-0.034052834 -0.20969379 1.909 4280226561
-0.030468326 -0.20969379 1.909 4280291585
-0.026883818 -0.20969379 1.909 4280357377
-0.02329931 -0.20969379 1.909 4280488449
-0.019714801 -0.20969379 1.909 4280357633
-0.016130291 -0.20969379 1.909 4280293378
-0.012545781 -0.20969379 1.909 4280227843
-0.00891433 -0.20859534 1.899 4280163078
-0.0053485981 -0.20859534 1.899 4280160009
-0.0017828661 -0.20859534 1.899 4280157447
0.0017828661 -0.20859534 1.899 4280617221
0.0053767636 -0.20969379 1.909 4281075715
0.00891433 -0.20859534 1.899 4281206529
0.012480062 -0.20859534 1.899 4281402635
0.016130291 -0.20969379 1.909 4280944406
0.019714801 -0.20969379 1.909 4280549647
0.02329931 -0.20969379 1.909 4280221961
0.026883818 -0.20969379 1.909 4279894277
0.030308723 -0.20859534 1.899 4281928193
0.033874456 -0.20859534 1.899 4284032769
0.037440188 -0.20859534 1.899 4284094977
0.041005921 -0.20859534 1.899 4284157441
0.043609336 -0.2040917 1.858 4284552705
0.046844594 -0.20299324 1.848 4284948993
0.050042301 -0.2018948 1.8380001 4285213185
0.053202454 -0.20079635 1.8280001 4285476866
0.056634869 -0.20079635 1.8280001 4285738500
0.059771553 -0.19980776 1.8190001 4286000387
0.063187063 -0.19980776 1.8190001 4286198019
0.06660258 -0.19980776 1.8190001 4286395906
0.069633178 -0.19870931 1.8090001 4286593025
0.073029913 -0.19870931 1.8090001 4286855937
0.076426655 -0.19870931 1.8090001 4287052289
0.079426266 -0.19772069 1.8000001 4287247873
0.082806103 -0.19772069 1.8000001 4287182593
0.086185947 -0.19772069 1.8000001 4287117313
0.089565784 -0.19772069 1.8000001 4287182081
0.092945635 -0.19772069 1.8000001 4287312649
0.095790327 -0.19662225 1.7900001 4287378193
0.099151395 -0.19662225 1.7900001 4287443465
0.10251246 -0.19662225 1.7900001 4287640577
0.10587352 -0.19662225 1.7900001 4287771393
0.10868536 -0.19563365 1.7810001 4288035073
0.11146341 -0.19464505 1.7720001 4288364033
0.11479067 -0.19464505 1.7720001 4288495105
0.11811794 -0.19464505 1.7720001 4288627465
0.12144519 -0.19464505 1.7720001 4288759314
0.12477247 -0.19464505 1.7720001 4288891407
0.12809972 -0.19464505 1.7720001 4288890637
0.13142699 -0.19464505 1.7720001 4288954631
0.13475427 -0.19464505 1.7720001 4289086209
0.13808152 -0.19464505 1.7720001 4289218049
0.1414088 -0.19464505 1.7720001 4289349634
0.14473605 -0.19464505 1.7720001 4289483009
0.14881535 -0.19563365 1.7810001 4289547521
0.15215951 -0.19563365 1.7810001 4289678593
0.15550368 -0.19563365 1.7810001 4289612801
0.15884784 -0.19563365 1.7810001 4289547521
0.16301161 -0.19662225 1.7900001 4289547265
0.16637267 -0.19662225 1.7900001 4289546497
0.17068197 -0.19772069 1.8000001 4289350401
0.17406182 -0.19772069 1.8000001 4289219841
0.17645587 -0.19662225 1.7900001 4288892161
0.17981693 -0.19662225 1.7900001 4288564226
0.18317801 -0.19662225 1.7900001 4288102915
0.18653905 -0.19662225 1.7900001 4287704834
0.18990012 -0.19662225 1.7900001 4287048449
0.19228949 -0.19563365 1.7810001 4286458881
0.19563365 -0.19563365 1.7810001 4286392577
0.19897781 -0.19563365 1.7810001 4286393089
0.20129958 -0.19464505 1.7720001 4286588673
0.20462684 -0.19464505 1.7720001 4286787329
0.20795411 -0.19464505 1.7720001 4287050241
0.21020828 -0.19365644 1.7630001 4287312130
0.21351865 -0.19365644 1.7630001 4287445508
0.21682902 -0.19365644 1.7630001 4287578626
0.21901558 -0.19266783 1.7540001 4287643905
0.22230904 -0.19266783 1.7540001 4287708929
0.22560251 -0.19266783 1.7540001 4287577857
0.2277215 -0.19167924 1.7450001 4287380481
0.23099805 -0.19167924 1.7450001 4287312385
0.23427463 -0.19167924 1.7450001 4287178241
0.23632599 -0.19069062 1.7360001 4287244290
0.23958567 -0.19069062 1.7360001 4287309058
0.24284533 -0.19069062 1.7360001 4287899907
0.24610502 -0.19069062 1.7360001 4288488450
0.24936466 -0.19069062 1.7360001 4288952321
0.25262433 -0.19069062 1.7360001 4289351681
0.25588399 -0.19069062 1.7360001 4289482753
0.25914368 -0.19069062 1.7360001 4289680385
0.26240334 -0.19069062 1.7360001 4289745153
0.26704031 -0.19167924 1.7450001 4289874945
0.27031687 -0.19167924 1.7450001 4289547010
0.27500451 -0.19266783 1.7540001 4289218049
0.27972597 -0.19365644 1.7630001 4288691457
0.28303635 -0.19365644 1.7630001 4288099073
0.2863467 -0.19365644 1.7630001 4287771393
0.28965709 -0.19365644 1.7630001 4287508993
0.29296744 -0.19365644 1.7630001 4287245313
0.29627782 -0.19365644 1.7630001 4286982145
0.29958817 -0.19365644 1.7630001 4286915074
0.30444479 -0.19464505 1.7720001 4286916865
0.30777207 -0.19464505 1.7720001 4286983937
0.31109935 -0.19464505 1.7720001 4287116289
0.31442663 -0.19464505 1.7720001 4287116801
0.31775388 -0.19464505 1.7720001 4287117313
0.32108113 -0.19464505 1.7720001 4287118849
0.32440841 -0.19464505 1.7720001 4287121921
0.32773566 -0.19464505 1.7720001 4284496898
0.33274442 -0.19563365 1.7810001 4281860364
0.33608857 -0.19563365 1.7810001 4281926166
0.33943275 -0.19563365 1.7810001 4281926923
0.34450907 -0.19662225 1.7900001 4281861633
0.34787014 -0.19662225 1.7900001 4281797122
0.35319337 -0.19772069 1.8000001 4281600771
0.3528094 -0.19563365 1.7810001 4281469967
0.35435379 -0.19464505 1.7720001 4281141531
0.35768107 -0.19464505 1.7720001 4280814098
0.35367405 -0.19069062 1.7360001 4280617481
0.35693374 -0.19069062 1.7360001 4280486411
0.3601934 -0.19069062 1.7360001 4280421646
0.36345309 -0.19069062 1.7360001 4280422930
0.36502284 -0.18981187 1.728 4280488726
0.36826748 -0.18981187 1.728 4280620578
0.37151212 -0.18981187 1.728 4280424238
0.37475675 -0.18981187 1.728 4280292893
0.37603268 -0.18882328 1.7190001 4280097292
0.37926042 -0.18882328 1.7190001 4279902480
0.38248816 -0.18882328 1.7190001 4280756757
0.38571593 -0.18882328 1.7190001 4281611557
0.38894367 -0.18882328 1.7190001 4281413686
0.39217141 -0.18882328 1.7190001 4281216037
0.39539915 -0.18882328 1.7190001 4281083412
0.40071395 -0.18981187 1.728 4280950288
0.40395859 -0.18981187 1.728 4280818956
0.40720323 -0.18981187 1.728 4280753679
0.4104479 -0.18981187 1.728 4280884242
0.41369253 -0.18981187 1.728 4280951060
0.41693717 -0.18981187 1.728 4281017622
0.42018181 -0.18981187 1.728 4281084186
0.42538679 -0.19069062 1.7360001 4282591263
0.42864648 -0.19069062 1.7360001 4284163097
0.43190613 -0.19069062 1.7360001 4284034836
0.43516579 -0.19069062 1.7360001 4283909176
-0.38078979 -0.21571836 1.9980001 4285823332
-0.37703818 -0.21571836 1.9980001 4285626711
-0.37104458 -0.21442275 1.9860001 4285299274
-0.36731547 -0.21442275 1.9860001 4285032796
-0.36157259 -0.21323511 1.9750001 4287322734
-0.35786414 -0.21323511 1.9750001 4289635978
-0.35415572 -0.21323511 1.9750001 4289509285
-0.35044727 -0.21323511 1.9750001 4289441950
-0.34867004 -0.21442275 1.9860001 4289376150
-0.34494093 -0.21442275 1.9860001 4289310366
-0.34121186 -0.21442275 1.9860001 4289310886
-0.33748275 -0.21442275 1.9860001 4289376156
-0.33375368 -0.21442275 1.9860001 4289507218
-0.33002457 -0.21442275 1.9860001 4289703834
-0.3262955 -0.21442275 1.9860001 4289507489
-0.32256639 -0.21442275 1.9860001 4289310882
-0.31883731 -0.21442275 1.9860001 4289114530
-0.31510821 -0.21442275 1.9860001 4288982939
-0.31326056 -0.21571836 1.9980001 4289180052
-0.30950895 -0.21571836 1.9980001 4289376151
-0.037854217 -0.20729691 1.9200001 4280358145
-0.034249056 -0.20729691 1.9200001 4280292609
-0.03064389 -0.20729691 1.9200001 4280226305
-0.027038729 -0.20729691 1.9200001 4280423425
-0.02329931 -0.20610927 1.909 4280619777
-0.019714801 -0.20610927 1.909 4280685570
-0.016130291 -0.20610927 1.909 4280818179
-0.012545781 -0.20610927 1.909 4280885764
-0.0089612724 -0.20610927 1.909 4280949765
-0.0053767636 -0.20610927 1.909 4280883974
-0.0017828661 -0.20502961 1.899 4280816388
0.0017828661 -0.20502961 1.899 4280947971
0.0053767636 -0.20610927 1.909 4281077506
0.0089612724 -0.20610927 1.909 4280945921
0.012545781 -0.20610927 1.909 4280813830
0.016130291 -0.20610927 1.909 4280288267
0.019714801 -0.20610927 1.909 4279829000
0.02329931 -0.20610927 1.909 4279304453
0.026883818 -0.20610927 1.909 4278845699
0.030468326 -0.20610927 1.909 4281401601
0.034052834 -0.20610927 1.909 4283964417
0.037440188 -0.20502961 1.899 4284095233
0.041005921 -0.20502961 1.899 4284291073
0.043609336 -0.20060295 1.858 4284554753
0.046844594 -0.19952329 1.848 4284883713
0.050042301 -0.19844361 1.8380001 4285212929
0.053202454 -0.19736393 1.8280001 4285541124
0.056634869 -0.19736393 1.8280001 4285738504
0.059771553 -0.19639224 1.8190001 4285934341
0.063187063 -0.19639224 1.8190001 4286131715
0.06660258 -0.19639224 1.8190001 4286395906
0.069633178 -0.19531257 1.8090001 4286594817
0.073029913 -0.19531257 1.8090001 4286856705
0.076046422 -0.19434087 1.8000001 4287118081
0.079426266 -0.19434087 1.8000001 4287379457
0.082806103 -0.19434087 1.8000001 4287182849
0.086185947 -0.19434087 1.8000001 4286985729
0.089565784 -0.19434087 1.8000001 4287116545
0.092945635 -0.19434087 1.8000001 4287312389
0.095790327 -0.19326119 1.7900001 4287378697
0.099151395 -0.19326119 1.7900001 4287444485
0.10251246 -0.19326119 1.7900001 4287575553
0.1053412 -0.19228949 1.7810001 4287772673
0.10813614 -0.19131778 1.7720001 4288035073
0.11146341 -0.19131778 1.7720001 4288364033
0.11479067 -0.19131778 1.7720001 4288496385
0.11811794 -0.19131778 1.7720001 4288627973
0.12144519 -0.19131778 1.7720001 4288760585
0.12477247 -0.19131778 1.7720001 4288956945
0.12809972 -0.19131778 1.7720001 4288956953
0.13142699 -0.19131778 1.7720001 4288956686
0.13475427 -0.19131778 1.7720001 4289088516
0.13808152 -0.19131778 1.7720001 4289219339
0.1414088 -0.19131778 1.7720001 4289285650
0.14473605 -0.19131778 1.7720001 4289415945
0.14881535 -0.19228949 1.7810001 4289480705
0.15215951 -0.19228949 1.7810001 4289546497
0.15550368 -0.19228949 1.7810001 4289546497
0.15884784 -0.19228949 1.7810001 4289547009
0.16301161 -0.19326119 1.7900001 4289546753
0.16637267 -0.19326119 1.7900001 4289546753
0.17068197 -0.19434087 1.8000001 4289349889
0.17406182 -0.19434087 1.8000001 4289219585
0.17645587 -0.19326119 1.7900001 4288957441
0.17981693 -0.19326119 1.7900001 4288695809
0.18317801 -0.19326119 1.7900001 4288369666
0.18653905 -0.19326119 1.7900001 4288034049
0.18990012 -0.19326119 1.7900001 4287179777
0.19228949 -0.19228949 1.7810001 4286393601
0.19563365 -0.19228949 1.7810001 4286328321
0.19897781 -0.19228949 1.7810001 4286326273
0.20129958 -0.19131778 1.7720001 4286519809
0.20462684 -0.19131778 1.7720001 4286720258
0.20795411 -0.19131778 1.7720001 4286984451
0.21020828 -0.19034608 1.7630001 4287313155
0.21351865 -0.19034608 1.7630001 4287445763
0.21682902 -0.19034608 1.7630001 4287643138
0.22013938 -0.19034608 1.7630001 4287644161
0.22230904 -0.18937437 1.7540001 4287643393
0.22560251 -0.18937437 1.7540001 4287512321
0.22889598 -0.18937437 1.7540001 4287446017
0.23099805 -0.18840268 1.7450001 4287379713
0.23427463 -0.18840268 1.7450001 4287377921
0.2375512 -0.18840268 1.7450001 4287443201
0.24082775 -0.18840268 1.7450001 4287508225
0.24284533 -0.18743096 1.7360001 4287704834
0.24610502 -0.18743096 1.7360001 4287965441
0.24936466 -0.18743096 1.7360001 4288617985
0.25262433 -0.18743096 1.7360001 4289282561
0.25588399 -0.18743096 1.7360001 4289417473
0.25914368 -0.18743096 1.7360001 4289548289
0.26240334 -0.18743096 1.7360001 4289809665
0.26566303 -0.18743096 1.7360001 4290138626
0.27031687 -0.18840268 1.7450001 4289878787
0.27500451 -0.18937437 1.7540001 4289610756
0.27972597 -0.19034608 1.7630001 4288888837
0.28303635 -0.19034608 1.7630001 4288166659
0.2863467 -0.19034608 1.7630001 4287902977
0.28965709 -0.19034608 1.7630001 4287639297
0.29296744 -0.19034608 1.7630001 4287310337
0.29779029 -0.19131778 1.7720001 4286981889
0.30111757 -0.19131778 1.7720001 4286915585
0.30444479 -0.19131778 1.7720001 4286851329
0.30777207 -0.19131778 1.7720001 4286982913
0.31109935 -0.19131778 1.7720001 4287115777
0.31442663 -0.19131778 1.7720001 4287248129
0.31775388 -0.19131778 1.7720001 4287380225
0.32108113 -0.19131778 1.7720001 4287447809
0.32440841 -0.19131778 1.7720001 4287515906
0.32940024 -0.19228949 1.7810001 4284700419
0.33274442 -0.19228949 1.7810001 4281931271
0.33778694 -0.19326119 1.7900001 4281860363
0.34114802 -0.19326119 1.7900001 4281861638
0.3464337 -0.19434087 1.8000001 4281861889
0.34981355 -0.19434087 1.8000001 4281862401
0.35319337 -0.19434087 1.8000001 4281666562
0.35459226 -0.19326119 1.7900001 4281469192
0.35615358 -0.19228949 1.7810001 4281140494
0.35949776 -0.19228949 1.7810001 4280878857
0.35550767 -0.18840268 1.7450001 4280681733
0.35878423 -0.18840268 1.7450001 4280486150
0.3601934 -0.18743096 1.7360001 4280421383
0.36345309 -0.18743096 1.7360001 4280422155
0.36502284 -0.18656722 1.728 4280618000
0.36826748 -0.18656722 1.728 4280816663
0.37151212 -0.18656722 1.728 4280555038
0.37475675 -0.18656722 1.728 4280358674
0.37603268 -0.18559553 1.7190001 4280423942
0.37926042 -0.18559553 1.7190001 4280557322
0.38248816 -0.18559553 1.7190001 4280886799
0.38571593 -0.18559553 1.7190001 4281216534
0.38894367 -0.18559553 1.7190001 4281152285
0.39217141 -0.18559553 1.7190001 4281150484
0.39539915 -0.18559553 1.7190001 4281017867
0.40071395 -0.18656722 1.728 4280951305
0.40395859 -0.18656722 1.728 4280885510
0.40720323 -0.18656722 1.728 4280818954
0.4104479 -0.18656722 1.728 4280884238
0.41369253 -0.18656722 1.728 4280950547
0.41693717 -0.18656722 1.728 4280886807
0.42212713 -0.18743096 1.7360001 4280886809
0.42538679 -0.18743096 1.7360001 4282460444
0.42864648 -0.18743096 1.7360001 4284098328
0.43414527 -0.18840268 1.7450001 4284034325
0.43742186 -0.18840268 1.7450001 4283974203
-0.37703818 -0.21196674 1.9980001 4285692487
-0.37104458 -0.21069364 1.9860001 4285364020
-0.36731547 -0.21069364 1.9860001 4285034580
-0.3635864 -0.21069364 1.9860001 4287331188
-0.35786414 -0.20952669 1.9750001 4289576839
-0.35415572 -0.20952669 1.9750001 4289442970
-0.35239911 -0.21069364 1.9860001 4289309849
-0.34867004 -0.21069364 1.9860001 4289244824
-0.34494093 -0.21069364 1.9860001 4289179300
-0.34121186 -0.21069364 1.9860001 4289245104
-0.33561355 -0.20952669 1.9750001 4289311141
-0.3319051 -0.20952669 1.9750001 4289441434
-0.33002457 -0.21069364 1.9860001 4289507486
-0.3262955 -0.21069364 1.9860001 4289376162
-0.32256639 -0.21069364 1.9860001 4289310369
-0.31883731 -0.21069364 1.9860001 4289179552
-0.31701219 -0.21196674 1.9980001 4289114775
-0.31326056 -0.21196674 1.9980001 4289245327
-0.30950895 -0.21196674 1.9980001 4289376150
-0.037637345 -0.20252477 1.909 4280096002
-0.034052834 -0.20252477 1.909 4280029697
-0.030468326 -0.20252477 1.909 4280028929
-0.026883818 -0.20252477 1.909 4280226049
-0.02329931 -0.20252477 1.909 4280423170
-0.019714801 -0.20252477 1.909 4280554755
-0.016130291 -0.20252477 1.909 4280752644
-0.012545781 -0.20252477 1.909 4280818693
-0.0089612724 -0.20252477 1.909 4280818180
-0.0053767636 -0.20252477 1.909 4280556036
-0.0017922545 -0.20252477 1.909 4280359426
0.0017922545 -0.20252477 1.909 4280555009
0.0053767636 -0.20252477 1.909 4280750849
0.00891433 -0.20146388 1.899 4280619266
0.012480062 -0.20146388 1.899 4280488193
0.016130291 -0.20252477 1.909 4279895809
0.019714801 -0.20252477 1.909 4279304705
0.02329931 -0.20252477 1.909 4279042305
0.026883818 -0.20252477 1.909 4278780161
0.030308723 -0.20146388 1.899 4281273345
0.033874456 -0.20146388 1.899 4283772417
0.037440188 -0.20146388 1.899 4283900673
0.041005921 -0.20146388 1.899 4284029441
0.043609336 -0.19711421 1.858 4284358401
0.047098082 -0.19711421 1.858 4284687361
0.050042301 -0.19499241 1.8380001 4285146881
0.053202454 -0.19393152 1.8280001 4285605382
0.056634869 -0.19393152 1.8280001 4285802252
0.059771553 -0.19297673 1.8190001 4285998088
0.063187063 -0.19297673 1.8190001 4286131972
0.06660258 -0.19297673 1.8190001 4286330882
0.069633178 -0.19191584 1.8090001 4286528257
0.073029913 -0.19191584 1.8090001 4286726913
0.076046422 -0.19096102 1.8000001 4286921986
0.079426266 -0.19096102 1.8000001 4287117057
0.082806103 -0.19096102 1.8000001 4287051009
0.086185947 -0.19096102 1.8000001 4286984961
0.089565784 -0.19096102 1.8000001 4287246593
0.092945635 -0.19096102 1.8000001 4287442177
0.095790327 -0.18990012 1.7900001 4287378689
0.099151395 -0.18990012 1.7900001 4287249409
0.10251246 -0.18990012 1.7900001 4287446273
0.1053412 -0.18894534 1.7810001 4287643905
0.10813614 -0.18799052 1.7720001 4287905537
0.11146341 -0.18799052 1.7720001 4288233473
0.11479067 -0.18799052 1.7720001 4288300033
0.11811794 -0.18799052 1.7720001 4288431361
0.12144519 -0.18799052 1.7720001 4288825601
0.12477247 -0.18799052 1.7720001 4289219091
0.12809972 -0.18799052 1.7720001 4289088293
0.13142699 -0.18799052 1.7720001 4288957718
0.13475427 -0.18799052 1.7720001 4289088775
0.13808152 -0.18799052 1.7720001 4289220373
0.1414088 -0.18799052 1.7720001 4289350691
0.14473605 -0.18799052 1.7720001 4289480466
0.14881535 -0.18894534 1.7810001 4289480705
0.15215951 -0.18894534 1.7810001 4289545985
0.15550368 -0.18894534 1.7810001 4289546753
0.15884784 -0.18894534 1.7810001 4289613569
0.16301161 -0.18990012 1.7900001 4289678593
0.16637267 -0.18990012 1.7900001 4289744385
0.16973373 -0.18990012 1.7900001 4289481985
0.17406182 -0.19096102 1.8000001 4289286401
0.17645587 -0.18990012 1.7900001 4289023489
0.17981693 -0.18990012 1.7900001 4288761601
0.18420134 -0.19096102 1.8000001 4288365313
0.18653905 -0.18990012 1.7900001 4287964673
0.18990012 -0.18990012 1.7900001 4287310849
0.19326119 -0.18990012 1.7900001 4286590977
0.19563365 -0.18894534 1.7810001 4286458881
0.19897781 -0.18894534 1.7810001 4286260481
0.20129958 -0.18799052 1.7720001 4286260482
0.20462684 -0.18799052 1.7720001 4286328067
0.20795411 -0.18799052 1.7720001 4286722309
0.21020828 -0.18703571 1.7630001 4287182595
0.21351865 -0.18703571 1.7630001 4287445506
0.21682902 -0.18703571 1.7630001 4287707649
0.22013938 -0.18703571 1.7630001 4287642881
0.22230904 -0.1860809 1.7540001 4287577601
0.22560251 -0.1860809 1.7540001 4287511553
0.22889598 -0.1860809 1.7540001 4287380481
0.23099805 -0.1851261 1.7450001 4287313921
0.23427463 -0.1851261 1.7450001 4287313921
0.2375512 -0.1851261 1.7450001 4287378945
0.23958567 -0.18417129 1.7360001 4287511041
0.24284533 -0.18417129 1.7360001 4287772161
0.24610502 -0.18417129 1.7360001 4288099073
0.24936466 -0.18417129 1.7360001 4288493313
0.25262433 -0.18417129 1.7360001 4288956929
0.25588399 -0.18417129 1.7360001 4289154305
0.25914368 -0.18417129 1.7360001 4289351425
0.26240334 -0.18417129 1.7360001 4289613825
0.26704031 -0.1851261 1.7450001 4289877506
0.27031687 -0.1851261 1.7450001 4289744388
0.27359343 -0.1851261 1.7450001 4289606151
0.27829799 -0.1860809 1.7540001 4289085962
0.28303635 -0.18703571 1.7630001 4288562181
0.2863467 -0.18703571 1.7630001 4288297473
0.29113576 -0.18799052 1.7720001 4288097281
0.29446301 -0.18799052 1.7720001 4287572225
0.29779029 -0.18799052 1.7720001 4287047681
0.30111757 -0.18799052 1.7720001 4286786049
0.30444479 -0.18799052 1.7720001 4286589953
0.30777207 -0.18799052 1.7720001 4286786561
0.31109935 -0.18799052 1.7720001 4287050497
0.31442663 -0.18799052 1.7720001 4287312641
0.31775388 -0.18799052 1.7720001 4287642369
0.32108113 -0.18799052 1.7720001 4287643650
0.32605609 -0.18894534 1.7810001 4287713795
0.32940024 -0.18894534 1.7810001 4285153541
0.33274442 -0.18894534 1.7810001 4282581251
0.33778694 -0.18990012 1.7900001 4282057729
0.34114802 -0.18990012 1.7900001 4281470465
0.3464337 -0.19096102 1.8000001 4281534977
0.34981355 -0.19096102 1.8000001 4281666049
0.35319337 -0.19096102 1.8000001 4281731841
0.35459226 -0.18990012 1.7900001 4281862401
0.35615358 -0.18894534 1.7810001 4281403649
0.35949776 -0.18894534 1.7810001 4281010945
0.35550767 -0.1851261 1.7450001 4280748545
0.35878423 -0.1851261 1.7450001 4280486913
0.3601934 -0.18417129 1.7360001 4280356865
0.36345309 -0.18417129 1.7360001 4280161285
0.36502284 -0.18332258 1.728 4280226826
0.36826748 -0.18332258 1.728 4280293900
0.37151212 -0.18332258 1.728 4280032014
0.37475675 -0.18332258 1.728 4279769863
0.37603268 -0.18236777 1.7190001 4280097793
0.37926042 -0.18236777 1.7190001 4280492293
0.38248816 -0.18236777 1.7190001 4280755465
0.38571593 -0.18236777 1.7190001 4281019142
0.38894367 -0.18236777 1.7190001 4281019652
0.39217141 -0.18236777 1.7190001 4281084675
0.39539915 -0.18236777 1.7190001 4281017859
0.40071395 -0.18332258 1.728 4280951810
0.40395859 -0.18332258 1.728 4280819201
0.40720323 -0.18332258 1.728 4280687366
0.4104479 -0.18332258 1.728 4280818955
0.41369253 -0.18332258 1.728 4280949778
0.41693717 -0.18332258 1.728 4281082137
0.42212713 -0.18417129 1.7360001 4281213465
0.42538679 -0.18417129 1.7360001 4282459161
0.42864648 -0.18417129 1.7360001 4283703831
0.43414527 -0.1851261 1.7450001 4283837718
0.43742186 -0.1851261 1.7450001 4283909182
-0.37703818 -0.20821512 1.9980001 4285758032
-0.37104458 -0.20696457 1.9860001 4285430339
-0.36731547 -0.20696457 1.9860001 4285099352
-0.3635864 -0.20696457 1.9860001 4287325806
-0.35985729 -0.20696457 1.9860001 4289569925
-0.35612822 -0.20696457 1.9860001 4289376411
-0.35239911 -0.20696457 1.9860001 4289245082
-0.34867004 -0.20696457 1.9860001 4289114008
-0.34303042 -0.20581825 1.9750001 4289048482
-0.33932197 -0.20581825 1.9750001 4289179819
-0.33748275 -0.20696457 1.9860001 4289310371
-0.33375368 -0.20696457 1.9860001 4289309338
-0.33002457 -0.20696457 1.9860001 4289375902
-0.3262955 -0.20696457 1.9860001 4289311137
-0.32256639 -0.20696457 1.9860001 4289310372
-0.31883731 -0.20696457 1.9860001 4289244327
-0.31510821 -0.20696457 1.9860001 4289245343
-0.31137913 -0.20696457 1.9860001 4289310872
-0.30950895 -0.20821512 1.9980001 4289376161
-0.034249056 -0.20008659 1.9200001 4279832834
-0.03064389 -0.20008659 1.9200001 4279897602
-0.027038729 -0.20008659 1.9200001 4280028675
-0.02329931 -0.19894025 1.909 4280225796
-0.019714801 -0.19894025 1.909 4280488708
-0.016130291 -0.19894025 1.909 4280752138
-0.012545781 -0.19894025 1.909 4280752912
-0.0089612724 -0.19894025 1.909 4280752649
-0.0053767636 -0.19894025 1.909 4280293635
-0.0017922545 -0.19894025 1.909 4279899906
0.0017922545 -0.19894025 1.909 4280162305
0.0053767636 -0.19894025 1.909 4280488713
0.0089612724 -0.19894025 1.909 4280292370
0.012545781 -0.19894025 1.909 4280159498
0.016130291 -0.19894025 1.909 4279437314
0.019714801 -0.19894025 1.909 4278780673
0.02329931 -0.19894025 1.909 4278780161
0.026883818 -0.19894025 1.909 4278780161
0.030468326 -0.19894025 1.909 4281139457
0.034052834 -0.19894025 1.909 4283570177
0.037440188 -0.19789813 1.899 4283706369
0.041005921 -0.19789813 1.899 4283834881
0.043609336 -0.19362547 1.858 4284162561
0.046844594 -0.19258334 1.848 4284556289
0.050042301 -0.19154122 1.8380001 4285081857
0.053202454 -0.1904991 1.8280001 4285670660
0.056634869 -0.1904991 1.8280001 4285867528
0.060067285 -0.1904991 1.8280001 4286065157
0.063187063 -0.1895612 1.8190001 4286198786
0.06660258 -0.1895612 1.8190001 4286329345
0.069633178 -0.18851909 1.8090001 4286460929
0.073029913 -0.18851909 1.8090001 4286593537
0.076046422 -0.18758117 1.8000001 4286726145
0.079426266 -0.18758117 1.8000001 4286920193
0.082806103 -0.18758117 1.8000001 4286984962
0.085707135 -0.18653905 1.7900001 4287050506
0.089068197 -0.18653905 1.7900001 4287312403
0.092429265 -0.18653905 1.7900001 4287640074
0.095790327 -0.18653905 1.7900001 4287378945
0.099151395 -0.18653905 1.7900001 4287118337
0.10251246 -0.18653905 1.7900001 4287316737
0.10587352 -0.18653905 1.7900001 4287578625
0.10813614 -0.18466324 1.7720001 4287841281
0.11146341 -0.18466324 1.7720001 4288103425
0.11479067 -0.18466324 1.7720001 4288170241
0.11811794 -0.18466324 1.7720001 4288301313
0.12144519 -0.18466324 1.7720001 4288891905
0.12477247 -0.18466324 1.7720001 4289481226
0.12809972 -0.18466324 1.7720001 4289219603
0.13142699 -0.18466324 1.7720001 4289022987
0.13475427 -0.18466324 1.7720001 4289154308
0.13808152 -0.18466324 1.7720001 4289285387
0.1414088 -0.18466324 1.7720001 4289416210
0.14473605 -0.18466324 1.7720001 4289546505
0.14881535 -0.18560116 1.7810001 4289547009
0.15215951 -0.18560116 1.7810001 4289546241
0.15550368 -0.18560116 1.7810001 4289612033
0.15884784 -0.18560116 1.7810001 4289744129
0.16301161 -0.18653905 1.7900001 4289809921
0.16637267 -0.18653905 1.7900001 4289941000
0.16973373 -0.18653905 1.7900001 4289613327
0.17309481 -0.18653905 1.7900001 4289351432
0.17645587 -0.18653905 1.7900001 4289088769
0.17981693 -0.18653905 1.7900001 4288892161
0.18317801 -0.18653905 1.7900001 4288431361
0.18653905 -0.18653905 1.7900001 4287968513
0.18990012 -0.18653905 1.7900001 4287377153
0.19326119 -0.18653905 1.7900001 4286853121
0.19662225 -0.18653905 1.7900001 4286524673
0.19897781 -0.18560116 1.7810001 4286261505
0.20232199 -0.18560116 1.7810001 4286064898
0.20462684 -0.18466324 1.7720001 4285934850
0.20795411 -0.18466324 1.7720001 4286460419
0.21128137 -0.18466324 1.7720001 4287051010
0.21351865 -0.18372534 1.7630001 4287381249
0.21682902 -0.18372534 1.7630001 4287773458
0.22013938 -0.18372534 1.7630001 4287642147
0.22344975 -0.18372534 1.7630001 4287576853
0.22560251 -0.18278743 1.7540001 4287445255
0.22889598 -0.18278743 1.7540001 4287379717
0.23218945 -0.18278743 1.7540001 4287313155
0.23548292 -0.18278743 1.7540001 4287247874
0.2375512 -0.18184952 1.7450001 4287379458
0.24082775 -0.18184952 1.7450001 4287510785
0.24284533 -0.18091163 1.7360001 4287839489
0.24610502 -0.18091163 1.7360001 4288232193
