# .PCD v0.7 - Point Cloud Data file format
VERSION 0.7
FIELDS x y z rgba
SIZE 4 4 4 4
TYPE F F F U
COUNT 1 1 1 1
WIDTH 1105
HEIGHT 1
VIEWPOINT 0 0 0 1 0 0 0
POINTS 1105
DATA ascii
0.28817838 0.29147184 1.7540001 4278979597
0.29147184 0.29147184 1.7540001 4278784022
0.29476532 0.29147184 1.7540001 4278651917
0.29805878 0.29147184 1.7540001 4278717445
0.30289856 0.29296744 1.7630001 4278783235
0.30620891 0.29296744 1.7630001 4278848257
0.30951929 0.29296744 1.7630001 4278979585
0.31282964 0.29296744 1.7630001 4278979073
0.31775388 0.29446301 1.7720001 4278979849
0.32108113 0.29446301 1.7720001 4279177745
0.32440841 0.29446301 1.7720001 4279375641
0.32773566 0.29446301 1.7720001 4279573026
0.33106294 0.29446301 1.7720001 4279771171
0.33439022 0.29446301 1.7720001 4280229925
0.33771747 0.29446301 1.7720001 4280689701
0.34104472 0.29446301 1.7720001 4280559142
0.34612107 0.29595861 1.7810001 4280428329
0.34946525 0.29595861 1.7810001 4280560429
0.3528094 0.29595861 1.7810001 4280755490
0.35795334 0.29745418 1.7900001 4281083671
0.36131439 0.29745418 1.7900001 4281477910
0.36467546 0.29745418 1.7900001 4282134294
0.36618608 0.29595861 1.7810001 4282853653
0.36953026 0.29595861 1.7810001 4283180308
0.37475866 0.29745418 1.7900001 4283572761
0.95651191 0.33002457 1.9860001 4286347643
0.96024102 0.33002457 1.9860001 4286348159
0.96975619 0.32819664 1.9750001 4286545018
0.97346473 0.32819664 1.9750001 4286611316
0.97717309 0.32819664 1.9750001 4286741352
0.97541839 0.32636872 1.9640001 4286741340
0.97910613 0.32636872 1.9640001 4286806635
0.98279393 0.32636872 1.9640001 4286613881
0.98648179 0.32636872 1.9640001 4286475640
0.98411965 0.32437462 1.9520001 4286151542
0.98778486 0.32437462 1.9520001 4285882970
0.99145013 0.32437462 1.9520001 4284506429
0.98950756 0.32254666 1.9410001 4283122755
0.9880355 0.32088491 1.9310001 4283185992
0.99166137 0.32088491 1.9310001 4283318339
0.99528712 0.32088491 1.9310001 4283251774
0.99891299 0.32088491 1.9310001 4283252020
1.0025388 0.32088491 1.9310001 4283186986
1.0061647 0.32088491 1.9310001 4283186735
1.0097904 0.32088491 1.9310001 4282987572
1.0134163 0.32088491 1.9310001 4282858295
1.0112484 0.31905702 1.9200001 4283118907
1.0148536 0.31905702 1.9200001 4283383878
1.0184587 0.31905702 1.9200001 4283974994
1.0220639 0.31905702 1.9200001 4284563790
1.0256691 0.31905702 1.9200001 4284430923
1.0233774 0.31722906 1.909 4284365892
1.0269619 0.31722906 1.909 4284300349
1.0305464 0.31722906 1.909 4284238914
1.0341309 0.31722906 1.909 4284371014
1.0322795 0.31556731 1.899 4284502343
1.0358452 0.31556731 1.899 4285026120
1.0448844 0.31722906 1.909 4285616968
1.0484689 0.31722906 1.909 4285355081
1.0465424 0.31556731 1.899 4285159742
1.0440254 0.31373939 1.8880001 4285684275
1.0475705 0.31373939 1.8880001 4286273586
1.0511156 0.31373939 1.8880001 4285813041
1.0546607 0.31373939 1.8880001 4285422900
1.0526009 0.31207764 1.8780001 4285422392
1.0561272 0.31207764 1.8780001 4285488457
1.0596534 0.31207764 1.8780001 4285944923
1.0631797 0.31207764 1.8780001 4286473561
1.061026 0.31041586 1.868 4286407511
1.0645335 0.31041586 1.868 4286343508
1.0737586 0.31207764 1.8780001 4286274898
1.0772849 0.31207764 1.8780001 4286212439
0.11442452 0.33577031 1.9980001 4279305985
0.11817615 0.33577031 1.9980001 4279044356
0.12192777 0.33577031 1.9980001 4278914055
0.12567939 0.33577031 1.9980001 4278783236
0.12943102 0.33577031 1.9980001 4278586113
0.13318264 0.33577031 1.9980001 4278454529
0.13611183 0.33375368 1.9860001 4278651393
0.13984093 0.33375368 1.9860001 4278848257
0.14277482 0.3319051 1.9750001 4278716929
0.14648326 0.3319051 1.9750001 4278651905
0.15019168 0.3319051 1.9750001 4278585857
0.15390013 0.3319051 1.9750001 4278454529
0.15760857 0.3319051 1.9750001 4278454785
0.16131701 0.3319051 1.9750001 4278521089
0.16410629 0.33005652 1.9640001 4278651137
0.16779409 0.33005652 1.9640001 4278781441
0.17148186 0.33005652 1.9640001 4278585089
0.17516966 0.33005652 1.9640001 4278454529
0.17776462 0.32803985 1.9520001 4278455041
0.18142988 0.32803985 1.9520001 4278521857
0.17248362 0.30568877 1.8190001 4278783489
0.17589913 0.30568877 1.8190001 4279045651
0.17931466 0.30568877 1.8190001 4279045670
0.18172561 0.30400828 1.8090001 4279045142
0.18512236 0.30400828 1.8090001 4279110918
0.18851909 0.30400828 1.8090001 4279242244
0.19096102 0.30249578 1.8000001 4279046147
0.19434087 0.30249578 1.8000001 4278850051
0.19772069 0.30249578 1.8000001 4279113476
0.20110054 0.30249578 1.8000001 4279376396
0.20448038 0.30249578 1.8000001 4279375893
0.20670545 0.30081522 1.7900001 4279375651
0.21006651 0.30081522 1.7900001 4279441201
0.21235448 0.29930276 1.7810001 4279506468
0.21569864 0.29930276 1.7810001 4279704087
0.21904281 0.29930276 1.7810001 4279901714
0.22126317 0.29779029 1.7720001 4279836174
0.22459044 0.29779029 1.7720001 4279770403
0.22676012 0.29627782 1.7630001 4279507768
0.23007049 0.29627782 1.7630001 4279244322
0.23218945 0.29476532 1.7540001 4278981133
0.23548292 0.29476532 1.7540001 4278717447
0.2375512 0.29325286 1.7450001 4278584833
0.24082775 0.29325286 1.7450001 4278518533
0.24410433 0.29325286 1.7450001 4278453257
0.24738091 0.29325286 1.7450001 4278322693
0.25065747 0.29325286 1.7450001 4278388226
0.25393403 0.29325286 1.7450001 4278388994
0.25721061 0.29325286 1.7450001 4278454530
0.26183066 0.29476532 1.7540001 4278454785
0.26512411 0.29476532 1.7540001 4278519809
0.2684176 0.29476532 1.7540001 4278520073
0.27310523 0.29627782 1.7630001 4278716177
0.27500451 0.29476532 1.7540001 4278847242
0.27829799 0.29476532 1.7540001 4278847747
0.28159148 0.29476532 1.7540001 4278849027
0.28488493 0.29476532 1.7540001 4278717443
0.28817838 0.29476532 1.7540001 4278585606
0.29147184 0.29476532 1.7540001 4278651657
0.29476532 0.29476532 1.7540001 4278651397
0.29958817 0.29627782 1.7630001 4278586625
0.30289856 0.29627782 1.7630001 4278588417
0.30620891 0.29627782 1.7630001 4278784513
0.30951929 0.29627782 1.7630001 4278981633
0.31442663 0.29779029 1.7720001 4279045889
0.31775388 0.29779029 1.7720001 4279111180
0.32108113 0.29779029 1.7720001 4279571223
0.32440841 0.29779029 1.7720001 4280031772
0.32773566 0.29779029 1.7720001 4279967522
0.33106294 0.29779029 1.7720001 4279903014
0.33439022 0.29779029 1.7720001 4280361771
0.33771747 0.29779029 1.7720001 4280821563
0.34104472 0.29779029 1.7720001 4280623435
0.34612107 0.29930276 1.7810001 4280427582
0.34946525 0.29930276 1.7810001 4280493361
0.3528094 0.29930276 1.7810001 4280558127
0.35795334 0.30081522 1.7900001 4280952621
0.36131439 0.30081522 1.7900001 4281347363
0.36467546 0.30081522 1.7900001 4282002970
0.36803651 0.30081522 1.7900001 4282723863
0.37139758 0.30081522 1.7900001 4283049749
0.37475866 0.30081522 1.7900001 4283375893
0.98279393 0.33005652 1.9640001 4286546307
0.98648179 0.33005652 1.9640001 4286546821
0.99016953 0.33005652 1.9640001 4285429128
0.98221844 0.32619128 1.9410001 4284311383
0.98586303 0.32619128 1.9410001 4283715879
0.98440969 0.32451075 1.9310001 4283055163
0.9880355 0.32451075 1.9310001 4283120975
0.99166137 0.32451075 1.9310001 4283252800
0.99528712 0.32451075 1.9310001 4283252273
0.99891299 0.32451075 1.9310001 4283251743
1.0025388 0.32451075 1.9310001 4282988814
1.0061647 0.32451075 1.9310001 4282790689
1.0097904 0.32451075 1.9310001 4282659892
1.0076432 0.32266217 1.9200001 4282529077
1.0112484 0.32266217 1.9200001 4282660406
1.0148536 0.32266217 1.9200001 4282858051
1.0184587 0.32266217 1.9200001 4282986833
1.0220639 0.32266217 1.9200001 4283182924
1.0197929 0.32081357 1.909 4283183688
1.0233774 0.32081357 1.909 4283182903
1.0269619 0.32081357 1.909 4283447335
1.025148 0.31913304 1.899 4283713840
1.0287137 0.31913304 1.899 4283712569
1.0322795 0.31913304 1.899 4283781184
1.0298451 0.31728446 1.8880001 4284041031
1.0333902 0.31728446 1.8880001 4284305994
1.0429767 0.31913304 1.899 4284501069
1.0404804 0.31728446 1.8880001 4284700738
1.0440254 0.31728446 1.8880001 4284763704
1.0420219 0.31560391 1.8780001 4284895801
1.0455482 0.31560391 1.8780001 4284960570
1.0490745 0.31560391 1.8780001 4285028147
1.0526009 0.31560391 1.8780001 4285157932
1.0505034 0.31392339 1.868 4285289025
1.0540109 0.31392339 1.868 4285289559
1.0575185 0.31392339 1.868 4285357641
1.0553459 0.31224284 1.858 4285487420
1.0588347 0.31224284 1.858 4285684282
1.0623235 0.31224284 1.858 4285749816
1.0658122 0.31224284 1.858 4285882175
0.11442452 0.33952194 1.9980001 4279174913
0.11817615 0.33952194 1.9980001 4278978823
0.12192777 0.33952194 1.9980001 4278848526
0.12567939 0.33952194 1.9980001 4278782727
0.12943102 0.33952194 1.9980001 4278585601
0.13318264 0.33952194 1.9980001 4278454529
0.13693425 0.33952194 1.9980001 4278520833
0.13984093 0.33748275 1.9860001 4278650881
0.14357001 0.33748275 1.9860001 4278650625
0.14729911 0.33748275 1.9860001 4278651137
0.15019168 0.33561355 1.9750001 4278520577
0.15390013 0.33561355 1.9750001 4278454788
0.15760857 0.33561355 1.9750001 4278455047
0.16131701 0.33561355 1.9750001 4278455300
0.16502543 0.33561355 1.9750001 4278521857
0.16779409 0.33374429 1.9640001 4278586113
0.17148186 0.33374429 1.9640001 4278454529
0.17516966 0.33374429 1.9640001 4278388993
0.17776462 0.33170509 1.9520001 4278389249
0.18142988 0.33170509 1.9520001 4278389761
0.17248362 0.30910429 1.8190001 4278717441
0.17589913 0.30910429 1.8190001 4279045643
0.17832886 0.30740499 1.8090001 4278979861
0.18172561 0.30740499 1.8090001 4278979340
0.18512236 0.30740499 1.8090001 4278979587
0.18851909 0.30740499 1.8090001 4278979843
0.19096102 0.30587563 1.8000001 4278849796
0.19434087 0.30587563 1.8000001 4278785029
0.19772069 0.30587563 1.8000001 4279114246
0.20110054 0.30587563 1.8000001 4279507466
0.20448038 0.30587563 1.8000001 4279377166
0.20670545 0.3041763 1.7900001 4279311123
0.21006651 0.3041763 1.7900001 4279310873
0.21235448 0.30264693 1.7810001 4279310867
0.21569864 0.30264693 1.7810001 4279442958
0.21904281 0.30264693 1.7810001 4279573775
0.22126317 0.30111757 1.7720001 4279573520
0.22459044 0.30111757 1.7720001 4279638815
0.22676012 0.29958817 1.7630001 4279441197
0.23007049 0.29958817 1.7630001 4279243550
0.23218945 0.29805878 1.7540001 4278849040
0.23548292 0.29805878 1.7540001 4278520073
0.23877639 0.29805878 1.7540001 4278453251
0.24082775 0.29652944 1.7450001 4278453252
0.24410433 0.29652944 1.7450001 4278322181
0.24738091 0.29652944 1.7450001 4278256899
0.25065747 0.29652944 1.7450001 4278322946
0.25393403 0.29652944 1.7450001 4278454529
0.2585372 0.29805878 1.7540001 4278389505
0.26183066 0.29805878 1.7540001 4278388993
0.26512411 0.29805878 1.7540001 4278323457
0.2684176 0.29805878 1.7540001 4278323205
0.27310523 0.29958817 1.7630001 4278520330
0.27500451 0.29805878 1.7540001 4278716168
0.27829799 0.29805878 1.7540001 4278717190
0.28159148 0.29805878 1.7540001 4278783237
0.28488493 0.29805878 1.7540001 4278521092
0.28817838 0.29805878 1.7540001 4278259207
0.29147184 0.29805878 1.7540001 4278454794
0.29476532 0.29805878 1.7540001 4278717702
0.29958817 0.29958817 1.7630001 4278521091
0.30289856 0.29958817 1.7630001 4278391810
0.30620891 0.29958817 1.7630001 4278654210
0.30951929 0.29958817 1.7630001 4278982149
0.31442663 0.30111757 1.7720001 4279112455
0.31775388 0.30111757 1.7720001 4279308562
0.32108113 0.30111757 1.7720001 4279964188
0.32440841 0.30111757 1.7720001 4280687146
0.32773566 0.30111757 1.7720001 4280362552
0.33106294 0.30111757 1.7720001 4280034610
0.33439022 0.30111757 1.7720001 4280493101
0.33771747 0.30111757 1.7720001 4280950838
0.34104472 0.30111757 1.7720001 4280686144
0.34612107 0.30264693 1.7810001 4280426545
0.34946525 0.30264693 1.7810001 4280427811
0.35459226 0.3041763 1.7900001 4280428327
0.35795334 0.3041763 1.7900001 4280821548
0.36131439 0.3041763 1.7900001 4281281840
0.36671275 0.30587563 1.8000001 4281938228
0.36803651 0.3041763 1.7900001 4282592809
0.37139758 0.3041763 1.7900001 4282919455
0.37475866 0.3041763 1.7900001 4283245338
0.98586303 0.32983586 1.9410001 4282925875
0.98440969 0.32813656 1.9310001 4283056192
0.9880355 0.32813656 1.9310001 4283121229
0.99166137 0.32813656 1.9310001 4283186752
0.99528712 0.32813656 1.9310001 4283187251
0.99891299 0.32813656 1.9310001 4283251753
1.0025388 0.32813656 1.9310001 4282791968
1.0061647 0.32813656 1.9310001 4282397738
1.0097904 0.32813656 1.9310001 4282332469
1.0076432 0.32626733 1.9200001 4282266158
1.0112484 0.32626733 1.9200001 4282266663
1.0148536 0.32626733 1.9200001 4282329657
1.0184587 0.32626733 1.9200001 4282062668
1.0220639 0.32626733 1.9200001 4281870661
1.0197929 0.3243981 1.909 4281938751
1.0233774 0.3243981 1.909 4282002743
1.0215824 0.32269874 1.899 4282592815
1.025148 0.32269874 1.899 4283183921
1.0287137 0.32269874 1.899 4283115828
1.0263001 0.32082954 1.8880001 4283118654
1.0298451 0.32082954 1.8880001 4283051337
1.0333902 0.32082954 1.8880001 4282988363
1.0369353 0.32082954 1.8880001 4283577421
1.0349693 0.31913024 1.8780001 4284234819
1.0384957 0.31913024 1.8780001 4283840057
1.0420219 0.31913024 1.8780001 4283515452
1.0455482 0.31913024 1.8780001 4284105790
1.0490745 0.31913024 1.8780001 4284696119
1.0526009 0.31913024 1.8780001 4284892720
1.0505034 0.31743091 1.868 4285090880
1.0540109 0.31743091 1.868 4284697681
1.0575185 0.31743091 1.868 4284305488
1.0496659 0.31403229 1.848 4284632143
1.053136 0.31403229 1.848 4285026630
1.0623235 0.31573159 1.858 4285289790
1.0658122 0.31573159 1.858 4285618749
0.11442452 0.34327358 1.9980001 4279175169
0.11817615 0.34327358 1.9980001 4279044619
0.12192777 0.34327358 1.9980001 4279045142
0.12567939 0.34327358 1.9980001 4279045131
0.12943102 0.34327358 1.9980001 4278848001
0.13318264 0.34327358 1.9980001 4278651137
0.13693425 0.34327358 1.9980001 4278781697
0.13984093 0.34121186 1.9860001 4278846721
0.14357001 0.34121186 1.9860001 4278781185
0.14729911 0.34121186 1.9860001 4278650369
0.15019168 0.33932197 1.9750001 4278585345
0.15390013 0.33932197 1.9750001 4278520327
0.15760857 0.33932197 1.9750001 4278454798
0.16131701 0.33932197 1.9750001 4278389511
0.16502543 0.33932197 1.9750001 4278455553
0.16779409 0.33743206 1.9640001 4278521345
0.17148186 0.33743206 1.9640001 4278586113
0.17516966 0.33743206 1.9640001 4278585857
0.17885743 0.33743206 1.9640001 4278454785
0.18142988 0.33537039 1.9520001 4278389505
0.18509512 0.33537039 1.9520001 4278652161
0.17589913 0.31251982 1.8190001 4278915331
0.17832886 0.31080174 1.8090001 4278914565
0.18172561 0.31080174 1.8090001 4278913539
0.18512236 0.31080174 1.8090001 4279044609
0.18851909 0.31080174 1.8090001 4279110147
0.19191584 0.31080174 1.8090001 4279111429
0.19434087 0.30925545 1.8000001 4279112455
0.19772069 0.30925545 1.8000001 4279310089
0.20110054 0.30925545 1.8000001 4279572744
0.20448038 0.30925545 1.8000001 4279442439
0.20670545 0.30753738 1.7900001 4279377412
0.21006651 0.30753738 1.7900001 4279376641
0.21235448 0.30599111 1.7810001 4279377155
0.21569864 0.30599111 1.7810001 4279442438
0.21904281 0.30599111 1.7810001 4279573516
0.22126317 0.30444479 1.7720001 4279507731
0.22459044 0.30444479 1.7720001 4279508251
0.22676012 0.30289856 1.7630001 4279637795
0.23007049 0.30289856 1.7630001 4279833627
0.23338085 0.30289856 1.7630001 4279111443
0.23548292 0.30135226 1.7540001 4278388492
0.23877639 0.30135226 1.7540001 4278453766
0.24206986 0.30135226 1.7540001 4278585091
0.24536331 0.30135226 1.7540001 4278453505
0.24865678 0.30135226 1.7540001 4278322177
0.25195023 0.30135226 1.7540001 4278388482
0.25524372 0.30135226 1.7540001 4278520321
0.2585372 0.30135226 1.7540001 4278520321
0.26183066 0.30135226 1.7540001 4278519809
0.26512411 0.30135226 1.7540001 4278454017
0.2684176 0.30135226 1.7540001 4278388482
0.27310523 0.30289856 1.7630001 4278584836
0.27641562 0.30289856 1.7630001 4278715142
0.27829799 0.30135226 1.7540001 4278847753
0.28159148 0.30135226 1.7540001 4278980615
0.2863467 0.30289856 1.7630001 4278916357
0.28817838 0.30135226 1.7540001 4278917128
0.29147184 0.30135226 1.7540001 4279112971
0.29476532 0.30135226 1.7540001 4279309064
0.29958817 0.30289856 1.7630001 4279244293
0.30289856 0.30289856 1.7630001 4279179780
0.30620891 0.30289856 1.7630001 4279180036
0.30951929 0.30289856 1.7630001 4279245833
0.31442663 0.30444479 1.7720001 4279244302
0.31775388 0.30444479 1.7720001 4279309080
0.32108113 0.30444479 1.7720001 4279768610
0.32440841 0.30444479 1.7720001 4280228152
0.32773566 0.30444479 1.7720001 4280099406
0.33106294 0.30444479 1.7720001 4280035646
0.33439022 0.30444479 1.7720001 4280100143
0.33771747 0.30444479 1.7720001 4280164402
0.34104472 0.30444479 1.7720001 4280229429
0.34612107 0.30599111 1.7810001 4280295973
0.34946525 0.30599111 1.7810001 4280297493
0.35459226 0.30753738 1.7900001 4280299296
0.35795334 0.30753738 1.7900001 4280692012
0.36131439 0.30753738 1.7900001 4281085757
0.36671275 0.30925545 1.8000001 4281675854
0.36803651 0.30753738 1.7900001 4282330939
0.37139758 0.30753738 1.7900001 4282722601
0.37475866 0.30753738 1.7900001 4283179551
0.38023213 0.30925545 1.8000001 4283376406
1.0025388 0.33176237 1.9310001 4282857266
1.0061647 0.33176237 1.9310001 4282397492
1.0097904 0.33176237 1.9310001 4282331190
1.0134163 0.33176237 1.9310001 4282330151
1.017042 0.33176237 1.9310001 4282329881
1.0206679 0.33176237 1.9310001 4282328624
1.0242937 0.33176237 1.9310001 4282132039
1.0279195 0.33176237 1.9310001 4281937214
1.0256691 0.32987249 1.9200001 4281936694
1.0292742 0.32987249 1.9200001 4282000951
1.0269619 0.3279826 1.909 4282329656
1.025148 0.3262645 1.899 4282657843
1.0287137 0.3262645 1.899 4282264367
1.0322795 0.3262645 1.899 4281936701
1.0358452 0.3262645 1.899 4282199372
1.0394109 0.3262645 1.899 4282460493
1.0369353 0.32437462 1.8880001 4282526542
1.0404804 0.32437462 1.8880001 4282658884
1.0384957 0.32265651 1.8780001 4282725179
1.0420219 0.32265651 1.8780001 4282793791
1.0455482 0.32265651 1.8780001 4282922563
1.0434883 0.32093841 1.868 4283119419
1.0469959 0.32093841 1.868 4283383604
1.0505034 0.32093841 1.868 4283714880
1.0540109 0.32093841 1.868 4283712844
1.0518572 0.31922033 1.858 4283780439
1.0496659 0.31750226 1.848 4283911267
1.053136 0.31750226 1.848 4284107091
1.0566058 0.31750226 1.848 4284632644
1.0600759 0.31750226 1.848 4285093436
0.11373729 0.34494093 1.9860001 4279241473
0.11746638 0.34494093 1.9860001 4279110151
0.12119546 0.34494093 1.9860001 4279242253
0.12567939 0.34702519 1.9980001 4279372807
0.12943102 0.34702519 1.9980001 4279110657
0.13318264 0.34702519 1.9980001 4278912769
0.13693425 0.34702519 1.9980001 4278977794
0.13984093 0.34494093 1.9860001 4279108865
0.14357001 0.34494093 1.9860001 4278912257
0.14729911 0.34494093 1.9860001 4278715905
0.15019168 0.34303042 1.9750001 4278650369
0.15390013 0.34303042 1.9750001 4278651140
0.15760857 0.34303042 1.9750001 4278520071
0.16131701 0.34303042 1.9750001 4278388996
0.16502543 0.34303042 1.9750001 4278455041
0.16779409 0.34111986 1.9640001 4278520577
0.17148186 0.34111986 1.9640001 4278652161
0.17516966 0.34111986 1.9640001 4278848001
0.17885743 0.34111986 1.9640001 4278586369
0.18142988 0.33903563 1.9520001 4278388994
0.18509512 0.33903563 1.9520001 4278586371
0.17589913 0.31593534 1.8190001 4278783500
0.17832886 0.31419849 1.8090001 4278850070
0.18172561 0.31419849 1.8090001 4278914318
0.18512236 0.31419849 1.8090001 4279110406
0.18851909 0.31419849 1.8090001 4279307272
0.19191584 0.31419849 1.8090001 4279373834
0.19434087 0.31263527 1.8000001 4279506186
0.19772069 0.31263527 1.8000001 4279572747
0.20110054 0.31263527 1.8000001 4279639052
0.20448038 0.31263527 1.8000001 4279574030
0.20670545 0.31089845 1.7900001 4279508238
0.21006651 0.31089845 1.7900001 4279441934
0.21235448 0.30933526 1.7810001 4279441678
0.21569864 0.30933526 1.7810001 4279507725
0.21904281 0.30933526 1.7810001 4279572754
0.22126317 0.30777207 1.7720001 4279441688
0.22459044 0.30777207 1.7720001 4279375905
0.22676012 0.30620891 1.7630001 4279899434
0.23007049 0.30620891 1.7630001 4280488734
0.23338085 0.30620891 1.7630001 4279374611
0.23548292 0.30464575 1.7540001 4278258443
0.23877639 0.30464575 1.7540001 4278454019
0.24206986 0.30464575 1.7540001 4278716674
0.24536331 0.30464575 1.7540001 4278585346
0.24738091 0.30308256 1.7450001 4278454273
0.25065747 0.30308256 1.7450001 4278520321
0.25393403 0.30308256 1.7450001 4278585601
0.2585372 0.30464575 1.7540001 4278586113
0.26183066 0.30464575 1.7540001 4278650625
0.26512411 0.30464575 1.7540001 4278585089
0.26979488 0.30620891 1.7630001 4278519298
0.27310523 0.30620891 1.7630001 4278650116
0.27641562 0.30620891 1.7630001 4278781445
0.27829799 0.30464575 1.7540001 4278978823
0.28159148 0.30464575 1.7540001 4279243785
0.28488493 0.30464575 1.7540001 4279378442
0.28817838 0.30464575 1.7540001 4279574793
0.29147184 0.30464575 1.7540001 4279705607
0.29476532 0.30464575 1.7540001 4279901192
0.29958817 0.30620891 1.7630001 4279967241
0.30289856 0.30620891 1.7630001 4280033294
0.30620891 0.30620891 1.7630001 4279771411
0.30951929 0.30620891 1.7630001 4279508502
0.31442663 0.30777207 1.7720001 4279441689
0.31775388 0.30777207 1.7720001 4279376159
0.32108113 0.30777207 1.7720001 4279573542
0.32440841 0.30777207 1.7720001 4279770674
0.32773566 0.30777207 1.7720001 4279902783
0.33106294 0.30777207 1.7720001 4280035127
0.33439022 0.30777207 1.7720001 4279708207
0.33771747 0.30777207 1.7720001 4279379250
0.34104472 0.30777207 1.7720001 4279771956
0.34612107 0.30933526 1.7810001 4280165935
0.34946525 0.30933526 1.7810001 4280167466
0.3528094 0.30933526 1.7810001 4280167980
0.35795334 0.31089845 1.7900001 4280561710
0.36131439 0.31089845 1.7900001 4280954935
0.36671275 0.31263527 1.8000001 4281479744
0.36803651 0.31089845 1.7900001 4282068530
0.37139758 0.31089845 1.7900001 4282592037
0.37475866 0.31089845 1.7900001 4283115039
0.38023213 0.31263527 1.8000001 4283377176
1.017042 0.33538821 1.9310001 4282328869
1.0206679 0.33538821 1.9310001 4282330156
1.0242937 0.33538821 1.9310001 4282134834
1.0279195 0.33538821 1.9310001 4282002471
1.0315453 0.33538821 1.9310001 4282001691
1.0351712 0.33538821 1.9310001 4282067247
1.0328794 0.33347765 1.9200001 4282067267
1.0305464 0.33156711 1.909 4282133306
1.0341309 0.33156711 1.909 4281413425
1.0322795 0.32983023 1.899 4280757559
1.0358452 0.32983023 1.899 4281348925
1.0394109 0.32983023 1.899 4281936192
1.0429767 0.32983023 1.899 4281475651
1.0404804 0.32791969 1.8880001 4281083442
1.0440254 0.32791969 1.8880001 4281608481
1.0475705 0.32791969 1.8880001 4282132784
1.0455482 0.32618284 1.8780001 4281802304
1.0490745 0.32618284 1.8780001 4281543996
1.0469959 0.32444596 1.868 4281939256
1.0505034 0.32444596 1.868 4282398271
1.0540109 0.32444596 1.868 4282790213
1.0518572 0.32270908 1.858 4283251531
1.0496659 0.32097223 1.848 4283256401
1.053136 0.32097223 1.848 4283254338
1.0566058 0.32097223 1.848 4283909426
1.0600759 0.32097223 1.848 4284630321
0.11373729 0.34867004 1.9860001 4279109377
0.11746638 0.34867004 1.9860001 4278978306
0.12119546 0.34867004 1.9860001 4279175684
0.12492456 0.34867004 1.9860001 4279372291
0.12943102 0.35077682 1.9980001 4279109890
0.13318264 0.35077682 1.9980001 4278846722
0.13611183 0.34867004 1.9860001 4278847235
0.13984093 0.34867004 1.9860001 4278912770
0.14357001 0.34867004 1.9860001 4278781697
0.14729911 0.34867004 1.9860001 4278651137
0.15102819 0.34867004 1.9860001 4278716673
0.15390013 0.34673882 1.9750001 4278783233
0.15760857 0.34673882 1.9750001 4278585857
0.16131701 0.34673882 1.9750001 4278388737
0.16502543 0.34673882 1.9750001 4278454273
0.16873387 0.34673882 1.9750001 4278454273
0.17148186 0.34480762 1.9640001 4278519553
0.17516966 0.34480762 1.9640001 4278585089
0.17885743 0.34480762 1.9640001 4278453761
0.18254521 0.34480762 1.9640001 4278321923
0.18509512 0.34270087 1.9520001 4278519557
0.17589913 0.31935084 1.8190001 4278716950
0.17832886 0.31759521 1.8090001 4278849319
0.18172561 0.31759521 1.8090001 4278980633
0.18512236 0.31759521 1.8090001 4279045644
0.18851909 0.31759521 1.8090001 4279176717
0.19096102 0.31601512 1.8000001 4279440143
0.19434087 0.31601512 1.8000001 4279769870
0.19772069 0.31601512 1.8000001 4279770382
0.20110054 0.31601512 1.8000001 4279836945
0.20448038 0.31601512 1.8000001 4279705621
0.20670545 0.3142595 1.7900001 4279508760
0.21006651 0.3142595 1.7900001 4279441692
0.21235448 0.31267944 1.7810001 4279309592
0.21569864 0.31267944 1.7810001 4279769109
0.2179359 0.31109935 1.7720001 4280227609
0.22126317 0.31109935 1.7720001 4279768605
0.22459044 0.31109935 1.7720001 4279375143
0.22676012 0.30951929 1.7630001 4279637041
0.23007049 0.30951929 1.7630001 4279964450
0.23338085 0.30951929 1.7630001 4279308564
0.23548292 0.3079392 1.7540001 4278651914
0.23877639 0.3079392 1.7540001 4278782465
0.24206986 0.3079392 1.7540001 4278849026
0.24536331 0.3079392 1.7540001 4278716675
0.24738091 0.30635914 1.7450001 4278520578
0.25065747 0.30635914 1.7450001 4278520065
0.25393403 0.30635914 1.7450001 4278519041
0.2585372 0.3079392 1.7540001 4278650369
0.26183066 0.3079392 1.7540001 4278715649
0.2664845 0.30951929 1.7630001 4278650113
0.26979488 0.30951929 1.7630001 4278650626
0.27310523 0.30951929 1.7630001 4278585092
0.27641562 0.30951929 1.7630001 4278520069
0.27972597 0.30951929 1.7630001 4278782982
0.28303635 0.30951929 1.7630001 4279113227
0.28488493 0.3079392 1.7540001 4279377168
0.28817838 0.3079392 1.7540001 4279642634
0.29147184 0.3079392 1.7540001 4279771908
0.29476532 0.3079392 1.7540001 4279968265
0.29958817 0.30951929 1.7630001 4280230414
0.30289856 0.30951929 1.7630001 4280559640
0.30620891 0.30951929 1.7630001 4280100130
0.30951929 0.30951929 1.7630001 4279706147
0.31442663 0.31109935 1.7720001 4279639844
0.31775388 0.31109935 1.7720001 4279574055
0.32108113 0.31109935 1.7720001 4279639594
0.32440841 0.31109935 1.7720001 4279771437
0.32773566 0.31109935 1.7720001 4280230193
0.33106294 0.31109935 1.7720001 4280624944
0.33439022 0.31109935 1.7720001 4280231984
0.33771747 0.31109935 1.7720001 4279904562
0.34104472 0.31109935 1.7720001 4280034868
0.34612107 0.31267944 1.7810001 4280231738
0.34946525 0.31267944 1.7810001 4279970368
0.3528094 0.31267944 1.7810001 4279774776
0.35795334 0.3142595 1.7900001 4280364849
0.36131439 0.3142595 1.7900001 4281020465
0.36467546 0.3142595 1.7900001 4281479218
0.36803651 0.3142595 1.7900001 4282002986
0.37139758 0.3142595 1.7900001 4282592290
0.37475866 0.3142595 1.7900001 4283180830
0.38023213 0.31601512 1.8000001 4283311387
1.0259537 0.34076965 1.9410001 4282397736
1.0295981 0.34076965 1.9410001 4282265630
1.0332428 0.34076965 1.9410001 4282133007
1.0427636 0.34270087 1.9520001 4282133249
1.0464288 0.34270087 1.9520001 4282134055
1.0387969 0.33901402 1.9310001 4282264398
1.0424228 0.33901402 1.9310001 4282395201
1.0460485 0.33901402 1.9310001 4281739572
1.043695 0.3370828 1.9200001 4281149233
1.0473001 0.3370828 1.9200001 4281411630
1.0509052 0.3370828 1.9200001 4281673779
1.0429767 0.33339596 1.899 4281475897
1.0465424 0.33339596 1.899 4281278240
1.0501081 0.33339596 1.899 4281344775
1.0475705 0.33146477 1.8880001 4281475106
1.0511156 0.33146477 1.8880001 4281476413
1.0490745 0.32970914 1.8780001 4281477949
1.0469959 0.32795349 1.868 4281609277
1.0505034 0.32795349 1.868 4281739326
1.0540109 0.32795349 1.868 4282000959
1.0518572 0.32619783 1.858 4282327615
1.0496659 0.32444221 1.848 4282331456
1.053136 0.32444221 1.848 4282335024
1.0566058 0.32444221 1.848 4282660897
1.0600759 0.32444221 1.848 4282924839
0.11817615 0.35452846 1.9980001 4278847490
0.12119546 0.35239911 1.9860001 4279109890
0.12492456 0.35239911 1.9860001 4279372034
0.12943102 0.35452846 1.9980001 4279044353
0.13238275 0.35239911 1.9860001 4278782465
0.13611183 0.35239911 1.9860001 4278783234
0.13984093 0.35239911 1.9860001 4278782209
0.14357001 0.35239911 1.9860001 4278716673
0.14648326 0.35044727 1.9750001 4278651393
0.15019168 0.35044727 1.9750001 4278781953
0.15390013 0.35044727 1.9750001 4278978817
0.15760857 0.35044727 1.9750001 4278717185
0.16131701 0.35044727 1.9750001 4278454017
0.16502543 0.35044727 1.9750001 4278453505
0.16873387 0.35044727 1.9750001 4278453249
0.17148186 0.34849539 1.9640001 4278387201
0.17516966 0.34849539 1.9640001 4278387713
0.17885743 0.34849539 1.9640001 4278322433
0.18254521 0.34849539 1.9640001 4278321922
0.186233 0.34849539 1.9640001 4278453252
0.18992078 0.34849539 1.9640001 4278651148
0.17832886 0.32099196 1.8090001 4278849557
0.18172561 0.32099196 1.8090001 4279045901
0.18512236 0.32099196 1.8090001 4279046406
0.18851909 0.32099196 1.8090001 4279111949
0.19191584 0.32099196 1.8090001 4279571732
0.19531257 0.32099196 1.8090001 4280032271
0.19870931 0.32099196 1.8090001 4280033801
0.20110054 0.31939498 1.8000001 4280099346
0.20448038 0.31939498 1.8000001 4279837210
0.20670545 0.31762058 1.7900001 4279573528
0.21006651 0.31762058 1.7900001 4279375639
0.21235448 0.31602362 1.7810001 4279244818
0.21569864 0.31602362 1.7810001 4280097038
0.2179359 0.31442663 1.7720001 4280948494
0.22126317 0.31442663 1.7720001 4280161551
0.22459044 0.31442663 1.7720001 4279375127
0.22676012 0.31282964 1.7630001 4279374624
0.23007049 0.31282964 1.7630001 4279440405
0.23338085 0.31282964 1.7630001 4279243274
0.23669122 0.31282964 1.7630001 4279110917
0.23877639 0.31123266 1.7540001 4279044609
0.24206986 0.31123266 1.7540001 4279044615
0.24536331 0.31123266 1.7540001 4278846989
0.24865678 0.31123266 1.7540001 4278651143
0.25065747 0.3096357 1.7450001 4278585858
0.25393403 0.3096357 1.7450001 4278519556
0.2585372 0.31123266 1.7540001 4278650119
0.26183066 0.31123266 1.7540001 4278846981
0.26512411 0.31123266 1.7540001 4278780932
0.26979488 0.31282964 1.7630001 4278781955
0.27310523 0.31282964 1.7630001 4278519555
0.27641562 0.31282964 1.7630001 4278323971
0.27972597 0.31282964 1.7630001 4278651395
0.28303635 0.31282964 1.7630001 4278981382
0.28488493 0.31123266 1.7540001 4279375114
0.28817838 0.31123266 1.7540001 4279770630
0.29147184 0.31123266 1.7540001 4279902722
0.29476532 0.31123266 1.7540001 4280033543
0.29958817 0.31282964 1.7630001 4280558348
0.30289856 0.31282964 1.7630001 4281082913
0.30620891 0.31282964 1.7630001 4280494391
0.30951929 0.31282964 1.7630001 4279903279
0.31282964 0.31282964 1.7630001 4279838247
0.31614003 0.31282964 1.7630001 4279771171
0.31945038 0.31282964 1.7630001 4279770912
0.32276076 0.31282964 1.7630001 4279836445
0.32773566 0.31442663 1.7720001 4280556826
0.33106294 0.31442663 1.7720001 4281279516
0.33439022 0.31442663 1.7720001 4280821279
0.33771747 0.31442663 1.7720001 4280428328
0.34104472 0.31442663 1.7720001 4280363057
0.34612107 0.31602362 1.7810001 4280362035
0.34946525 0.31602362 1.7810001 4279839030
0.3528094 0.31602362 1.7810001 4279380785
0.35615358 0.31602362 1.7810001 4280233516
0.36131439 0.31762058 1.7900001 4281085746
0.36467546 0.31762058 1.7900001 4281479736
0.36803651 0.31762058 1.7900001 4281937960
0.37139758 0.31762058 1.7900001 4282593561
0.37475866 0.31762058 1.7900001 4283246872
0.38023213 0.31939498 1.8000001 4283246360
1.0454862 0.34849539 1.9640001 4282264857
1.0491741 0.34849539 1.9640001 4282199310
1.0528618 0.34849539 1.9640001 4282199590
1.0500941 0.34636614 1.9520001 4282396222
1.0478212 0.34441426 1.9410001 4282657331
1.0514657 0.34441426 1.9410001 4282065961
1.0551103 0.34441426 1.9410001 4281540896
1.0587549 0.34441426 1.9410001 4281474583
1.0569261 0.34263983 1.9310001 4281475879
1.0605519 0.34263983 1.9310001 4281476150
1.0465424 0.33696169 1.899 4281475882
1.0501081 0.33696169 1.899 4281149214
1.053674 0.33696169 1.899 4280821292
1.0511156 0.33500987 1.8880001 4281084987
1.0490745 0.33323544 1.8780001 4281411383
1.0469959 0.33146101 1.868 4281215028
1.0505034 0.33146101 1.868 4281083190
1.0483685 0.32968658 1.858 4281278009
1.0518572 0.32968658 1.858 4281474358
1.0496659 0.32791215 1.848 4281472819
1.053136 0.32791215 1.848 4281476394
1.0566058 0.32791215 1.848 4281343266
1.0600759 0.32791215 1.848 4281280039
0.13318264 0.35828006 1.9980001 4278783489
0.13693425 0.35828006 1.9980001 4278782977
0.13984093 0.35612822 1.9860001 4278716673
0.14357001 0.35612822 1.9860001 4278586113
0.14729911 0.35612822 1.9860001 4278455809
0.15102819 0.35612822 1.9860001 4278585601
0.15390013 0.35415572 1.9750001 4278715649
0.15760857 0.35415572 1.9750001 4278585089
0.16131701 0.35415572 1.9750001 4278453505
0.16502543 0.35415572 1.9750001 4278387713
0.16873387 0.35415572 1.9750001 4278387713
0.17148186 0.35218319 1.9640001 4278321921
0.17516966 0.35218319 1.9640001 4278321921
0.17885743 0.35218319 1.9640001 4278321921
0.18254521 0.35218319 1.9640001 4278321410
0.18509512 0.35003138 1.9520001 4278518787
0.18876037 0.35003138 1.9520001 4278716675
0.17832886 0.32438868 1.8090001 4278914307
0.18172561 0.32438868 1.8090001 4279176706
0.18512236 0.32438868 1.8090001 4278980865
0.18851909 0.32438868 1.8090001 4278850317
0.19191584 0.32438868 1.8090001 4279376154
0.19531257 0.32438868 1.8090001 4279901711
0.19870931 0.32438868 1.8090001 4280099589
0.20110054 0.32277483 1.8000001 4280296722
0.20448038 0.32277483 1.8000001 4280033312
0.20670545 0.32098162 1.7900001 4279834905
0.21006651 0.32098162 1.7900001 4279704082
0.21235448 0.31936777 1.7810001 4279574029
0.21569864 0.31936777 1.7810001 4280097544
0.2179359 0.31775388 1.7720001 4280555524
0.22126317 0.31775388 1.7720001 4280096769
0.22459044 0.31775388 1.7720001 4279638024
0.22676012 0.31614003 1.7630001 4279506960
0.23007049 0.31614003 1.7630001 4279376392
0.23338085 0.31614003 1.7630001 4279178753
0.23548292 0.31452611 1.7540001 4279045889
0.23877639 0.31452611 1.7540001 4279111169
0.24206986 0.31452611 1.7540001 4279175948
0.24410433 0.31291226 1.7450001 4278979095
0.24738091 0.31291226 1.7450001 4278782477
0.25195023 0.31452611 1.7540001 4278716932
0.25524372 0.31452611 1.7540001 4278717192
0.2585372 0.31452611 1.7540001 4278716429
0.26183066 0.31452611 1.7540001 4278716938
0.2664845 0.31614003 1.7630001 4278782983
0.26979488 0.31614003 1.7630001 4278849029
0.27310523 0.31614003 1.7630001 4278717443
0.27641562 0.31614003 1.7630001 4278653954
0.27972597 0.31614003 1.7630001 4278915585
0.28159148 0.31452611 1.7540001 4279245058
0.28488493 0.31452611 1.7540001 4279638276
0.28817838 0.31452611 1.7540001 4280031746
0.29147184 0.31452611 1.7540001 4279901441
0.29476532 0.31452611 1.7540001 4279836677
0.29805878 0.31452611 1.7540001 4280163850
0.30135226 0.31452611 1.7540001 4280491563
0.30620891 0.31614003 1.7630001 4280164429
0.30951929 0.31614003 1.7630001 4279770939
0.31282964 0.31614003 1.7630001 4279771178
0.31614003 0.31614003 1.7630001 4279770400
0.31945038 0.31614003 1.7630001 4279771414
0.32276076 0.31614003 1.7630001 4279771660
0.32773566 0.31775388 1.7720001 4279968259
0.33106294 0.31775388 1.7720001 4280231433
0.33439022 0.31775388 1.7720001 4280231439
0.33771747 0.31775388 1.7720001 4280296734
0.34104472 0.31775388 1.7720001 4280295726
0.344372 0.31775388 1.7720001 4280359213
0.34769928 0.31775388 1.7720001 4280165165
0.35102654 0.31775388 1.7720001 4279970346
0.35615358 0.31936777 1.7810001 4280495143
0.36131439 0.32098162 1.7900001 4281085490
0.36467546 0.32098162 1.7900001 4281479230
0.36803651 0.32098162 1.7900001 4281872167
0.37139758 0.32098162 1.7900001 4282591505
0.37475866 0.32098162 1.7900001 4283377427
0.38023213 0.32277483 1.8000001 4283311125
1.0571973 0.35612822 1.9860001 4282134050
1.0550503 0.35415572 1.9750001 4282134812
1.0528618 0.35218319 1.9640001 4282134565
1.0500941 0.35003138 1.9520001 4282265390
1.0537593 0.35003138 1.9520001 4282461734
1.0574245 0.35003138 1.9520001 4281935134
1.0610899 0.35003138 1.9520001 4281473807
1.0647551 0.35003138 1.9520001 4281605889
1.0749885 0.35218319 1.9640001 4281738266
1.0786762 0.35218319 1.9640001 4281672756
1.0823641 0.35218319 1.9640001 4281541684
1.0860518 0.35218319 1.9640001 4281411125
1.0897397 0.35218319 1.9640001 4281345591
1.0934274 0.35218319 1.9640001 4281345082
1.10326 0.35415572 1.9750001 4281344050
1.0582057 0.33855495 1.8880001 4281345067
1.0505034 0.33496851 1.868 4281345839
1.0483685 0.33317536 1.858 4281344308
1.0518572 0.33317536 1.858 4281409581
1.0496659 0.33138216 1.848 4281474855
1.053136 0.33138216 1.848 4281540901
1.0566058 0.33138216 1.848 4281279523
1.0600759 0.33138216 1.848 4281017896
0.13318264 0.36203167 1.9980001 4278848513
0.13611183 0.35985729 1.9860001 4278782977
0.13984093 0.35985729 1.9860001 4278717185
0.14357001 0.35985729 1.9860001 4278520833
0.14648326 0.35786414 1.9750001 4278324225
0.15019168 0.35786414 1.9750001 4278388993
0.15390013 0.35786414 1.9750001 4278454017
0.15760857 0.35786414 1.9750001 4278454017
0.16131701 0.35786414 1.9750001 4278453505
0.16502543 0.35786414 1.9750001 4278387713
0.16873387 0.35786414 1.9750001 4278387457
0.17244232 0.35786414 1.9750001 4278321921
0.17516966 0.35587099 1.9640001 4278256385
0.17885743 0.35587099 1.9640001 4278256385
0.18254521 0.35587099 1.9640001 4278321666
0.186233 0.35587099 1.9640001 4278518531
0.18992078 0.35587099 1.9640001 4278782466
0.19360857 0.35587099 1.9640001 4279045634
0.18172561 0.32778543 1.8090001 4279308551
0.18512236 0.32778543 1.8090001 4278981133
0.18851909 0.32778543 1.8090001 4278655249
0.19191584 0.32778543 1.8090001 4279181334
0.19531257 0.32778543 1.8090001 4279771660
0.19870931 0.32778543 1.8090001 4280101123
0.20110054 0.32615468 1.8000001 4280493071
0.20448038 0.32615468 1.8000001 4280295963
0.20786022 0.32615468 1.8000001 4280097819
0.21006651 0.32434267 1.7900001 4280032284
0.21342757 0.32434267 1.7900001 4279966483
0.21569864 0.32271194 1.7810001 4280098059
0.2179359 0.32108113 1.7720001 4280228618
0.22126317 0.32108113 1.7720001 4280032778
0.22459044 0.32108113 1.7720001 4279900939
0.22676012 0.31945038 1.7630001 4279573517
0.23007049 0.31945038 1.7630001 4279310855
0.23338085 0.31945038 1.7630001 4279115010
0.23548292 0.3178196 1.7540001 4278982401
0.23877639 0.3178196 1.7540001 4279112961
0.24206986 0.3178196 1.7540001 4279308295
0.24536331 0.3178196 1.7540001 4279111181
0.24865678 0.3178196 1.7540001 4278979338
0.25195023 0.3178196 1.7540001 4278914055
0.25524372 0.3178196 1.7540001 4278913803
0.2585372 0.3178196 1.7540001 4278782223
0.26183066 0.3178196 1.7540001 4278652428
0.26512411 0.3178196 1.7540001 4278785288
0.26979488 0.31945038 1.7630001 4278980360
0.27310523 0.31945038 1.7630001 4278979080
0.27500451 0.3178196 1.7540001 4278980616
0.27829799 0.3178196 1.7540001 4279243529
0.28159148 0.3178196 1.7540001 4279573258
0.28488493 0.3178196 1.7540001 4279901963
0.28817838 0.3178196 1.7540001 4280294411
0.29147184 0.3178196 1.7540001 4279966219
0.29476532 0.3178196 1.7540001 4279704339
0.29805878 0.3178196 1.7540001 4279835163
0.30135226 0.3178196 1.7540001 4279966510
0.30620891 0.31945038 1.7630001 4279835969
0.30951929 0.31945038 1.7630001 4279705654
0.31282964 0.31945038 1.7630001 4279705131
0.31614003 0.31945038 1.7630001 4279771426
0.31945038 0.31945038 1.7630001 4279707161
0.32276076 0.31945038 1.7630001 4279706900
0.32773566 0.32108113 1.7720001 4279445008
0.33106294 0.32108113 1.7720001 4279248657
0.33439022 0.32108113 1.7720001 4279707922
0.33771747 0.32108113 1.7720001 4280165406
0.34104472 0.32108113 1.7720001 4280295210
0.344372 0.32108113 1.7720001 4280426018
0.34769928 0.32108113 1.7720001 4280492059
0.35102654 0.32108113 1.7720001 4280624927
0.35615358 0.32271194 1.7810001 4280822820
0.36131439 0.32434267 1.7900001 4281085478
0.36467546 0.32434267 1.7900001 4281414185
0.36803651 0.32434267 1.7900001 4281805337
0.37139758 0.32434267 1.7900001 4282654729
0.37685227 0.32615468 1.8000001 4283572247
0.38023213 0.32615468 1.8000001 4283441189
1.0550503 0.35786414 1.9750001 4282005796
1.0528618 0.35587099 1.9640001 4282069802
1.0565495 0.35587099 1.9640001 4282134833
1.0602374 0.35587099 1.9640001 4282264618
1.0639251 0.35587099 1.9640001 4281870116
1.0676129 0.35587099 1.9640001 4281475612
1.0713007 0.35587099 1.9640001 4281737493
1.0810093 0.35786414 1.9750001 4282065448
1.0847178 0.35786414 1.9750001 4281869371
1.0884262 0.35786414 1.9750001 4281673271
1.0921346 0.35786414 1.9750001 4281739571
1.0958431 0.35786414 1.9750001 4281869615
1.0995514 0.35786414 1.9750001 4281540140
1.10326 0.35786414 1.9750001 4281278755
1.0582057 0.34210002 1.8880001 4281410074
1.0505034 0.33847606 1.868 4281606184
1.0540109 0.33847606 1.868 4281475638
1.0518572 0.33666408 1.858 4281409837
1.0496659 0.3348521 1.848 4281476387
1.053136 0.3348521 1.848 4281607707
0.12943102 0.3657833 1.9980001 4278782465
0.13238275 0.3635864 1.9860001 4278848001
0.13611183 0.3635864 1.9860001 4278716929
0.13906638 0.36157259 1.9750001 4278651905
0.14277482 0.36157259 1.9750001 4278520833
0.14648326 0.36157259 1.9750001 4278390017
0.15019168 0.36157259 1.9750001 4278454529
0.15390013 0.36157259 1.9750001 4278454017
0.15760857 0.36157259 1.9750001 4278454017
0.16131701 0.36157259 1.9750001 4278387969
0.16502543 0.36157259 1.9750001 4278387713
0.16873387 0.36157259 1.9750001 4278321921
0.17244232 0.36157259 1.9750001 4278321921
0.17516966 0.35955876 1.9640001 4278322177
0.17885743 0.35955876 1.9640001 4278321665
0.18254521 0.35955876 1.9640001 4278321410
0.186233 0.35955876 1.9640001 4278519300
0.18992078 0.35955876 1.9640001 4278718466
0.19360857 0.35955876 1.9640001 4278981121
0.18273017 0.33301291 1.8190001 4279309837
0.18614569 0.33301291 1.8190001 4279245594
0.18851909 0.33118218 1.8090001 4279246870
0.19191584 0.33118218 1.8090001 4279574290
0.19531257 0.33118218 1.8090001 4279902729
0.19870931 0.33118218 1.8090001 4280295937
0.20110054 0.3295345 1.8000001 4280688907
0.20448038 0.3295345 1.8000001 4280360470
0.20786022 0.3295345 1.8000001 4280031774
0.21006651 0.32770374 1.7900001 4279965735
0.21342757 0.32770374 1.7900001 4279899674
0.21569864 0.32605609 1.7810001 4279900686
0.21904281 0.32605609 1.7810001 4279901201
0.22126317 0.32440841 1.7720001 4279769876
0.22459044 0.32440841 1.7720001 4279704079
0.22676012 0.32276076 1.7630001 4279441418
0.23007049 0.32276076 1.7630001 4279112967
0.23338085 0.32276076 1.7630001 4279113732
0.23548292 0.32111305 1.7540001 4279049218
0.23877639 0.32111305 1.7540001 4279113217
0.24206986 0.32111305 1.7540001 4279177986
0.24536331 0.32111305 1.7540001 4279111427
0.24738091 0.3194654 1.7450001 4279044614
0.25065747 0.3194654 1.7450001 4278979594
0.25393403 0.3194654 1.7450001 4278914062
0.25721061 0.3194654 1.7450001 4278914578
0.26183066 0.32111305 1.7540001 4278915598
0.26512411 0.32111305 1.7540001 4278981386
0.2684176 0.32111305 1.7540001 4279111692
0.27171105 0.32111305 1.7540001 4279177230
0.27500451 0.32111305 1.7540001 4279243023
0.27829799 0.32111305 1.7540001 4279375121
0.28159148 0.32111305 1.7540001 4279509265
0.28488493 0.32111305 1.7540001 4279836690
0.28669971 0.3194654 1.7450001 4280164115
0.2899763 0.3194654 1.7450001 4279901461
0.29325286 0.3194654 1.7450001 4279704096
0.29652944 0.3194654 1.7450001 4279704108
0.30135226 0.32111305 1.7540001 4279769392
0.30620891 0.32276076 1.7630001 4279705653
0.30951929 0.32276076 1.7630001 4279642161
0.31282964 0.32276076 1.7630001 4279575341
0.31614003 0.32276076 1.7630001 4279575333
0.31945038 0.32276076 1.7630001 4279903517
0.32276076 0.32276076 1.7630001 4280231709
0.32773566 0.32440841 1.7720001 4279904285
0.33106294 0.32440841 1.7720001 4279577113
0.33439022 0.32440841 1.7720001 4279772949
0.33771747 0.32440841 1.7720001 4279969053
0.34104472 0.32440841 1.7720001 4280164646
0.344372 0.32440841 1.7720001 4280427031
0.34769928 0.32440841 1.7720001 4280558601
0.3528094 0.32605609 1.7810001 4280690453
0.35615358 0.32605609 1.7810001 4280888098
0.36131439 0.32770374 1.7900001 4281085467
0.36467546 0.32770374 1.7900001 4281412884
0.36803651 0.32770374 1.7900001 4281739018
0.37139758 0.32770374 1.7900001 4282524673
0.37685227 0.3295345 1.8000001 4283308827
0.38213328 0.33118218 1.8090001 4283309877
1.0609264 0.3635864 1.9860001 4281938989
1.0528618 0.35955876 1.9640001 4281938736
1.0565495 0.35955876 1.9640001 4282003252
1.0602374 0.35955876 1.9640001 4282133039
1.0639251 0.35955876 1.9640001 4281739306
1.0676129 0.35955876 1.9640001 4281411625
1.0773009 0.36157259 1.9750001 4281541417
1.0810093 0.36157259 1.9750001 4281737782
1.0847178 0.36157259 1.9750001 4281606979
1.0884262 0.36157259 1.9750001 4281476922
1.0982174 0.3635864 1.9860001 4281542705
1.1019465 0.3635864 1.9860001 4281608488
1.1056755 0.3635864 1.9860001 4281476639
1.1094047 0.3635864 1.9860001 4281345300
1.1069684 0.36157259 1.9750001 4281540105
1.1106769 0.36157259 1.9750001 4281800737
1.1143852 0.36157259 1.9750001 4281343289
1.1180936 0.36157259 1.9750001 4280950316
1.1280501 0.3635864 1.9860001 4281148192
1.1386179 0.3657833 1.9980001 4281345809
0.13238275 0.36731547 1.9860001 4278847489
0.13611183 0.36731547 1.9860001 4278716673
0.13906638 0.36528105 1.9750001 4278651394
0.14277482 0.36528105 1.9750001 4278586627
0.14648326 0.36528105 1.9750001 4278520580
0.15019168 0.36528105 1.9750001 4278520325
0.15390013 0.36528105 1.9750001 4278519811
0.15760857 0.36528105 1.9750001 4278454529
0.16131701 0.36528105 1.9750001 4278388225
0.16502543 0.36528105 1.9750001 4278322689
0.16873387 0.36528105 1.9750001 4278321922
0.17244232 0.36528105 1.9750001 4278321923
0.17615075 0.36528105 1.9750001 4278387458
0.17885743 0.36324653 1.9640001 4278321921
0.18254521 0.36324653 1.9640001 4278321665
0.186233 0.36324653 1.9640001 4278453250
0.18992078 0.36324653 1.9640001 4278651657
0.19360857 0.36324653 1.9640001 4278981649
0.18273017 0.33642843 1.8190001 4279310367
0.18614569 0.33642843 1.8190001 4279575598
0.18851909 0.3345789 1.8090001 4279837220
0.19191584 0.3345789 1.8090001 4279901466
0.19531257 0.3345789 1.8090001 4280032538
0.19870931 0.3345789 1.8090001 4280491546
0.20210604 0.3345789 1.8090001 4280950043
0.20448038 0.33291432 1.8000001 4280425756
0.20786022 0.33291432 1.8000001 4279966502
0.21006651 0.33106482 1.7900001 4279899952
0.21342757 0.33106482 1.7900001 4279834916
0.21569864 0.32940024 1.7810001 4279704088
0.21904281 0.32940024 1.7810001 4279573792
0.22126317 0.32773566 1.7720001 4279573033
0.22459044 0.32773566 1.7720001 4279572510
0.22676012 0.32607111 1.7630001 4279244051
0.23007049 0.32607111 1.7630001 4278981901
0.23338085 0.32607111 1.7630001 4279047430
0.23548292 0.32440653 1.7540001 4279179524
0.23877639 0.32440653 1.7540001 4279113218
0.24206986 0.32440653 1.7540001 4279112194
0.24536331 0.32440653 1.7540001 4279111938
0.24865678 0.32440653 1.7540001 4279111430
0.25065747 0.32274196 1.7450001 4278980105
0.25393403 0.32274196 1.7450001 4278915350
0.25721061 0.32274196 1.7450001 4279046947
0.26183066 0.32440653 1.7540001 4279178012
0.26512411 0.32440653 1.7540001 4279244054
0.2684176 0.32440653 1.7540001 4279309339
0.27171105 0.32440653 1.7540001 4279440672
0.27500451 0.32440653 1.7540001 4279571484
0.27829799 0.32440653 1.7540001 4279505433
0.28014657 0.32274196 1.7450001 4279441947
0.28342313 0.32274196 1.7450001 4279706397
0.28669971 0.32274196 1.7450001 4280033052
0.2899763 0.32274196 1.7450001 4279837211
0.29325286 0.32274196 1.7450001 4279705124
0.29652944 0.32274196 1.7450001 4279638828
0.299806 0.32274196 1.7450001 4279639346
0.30464575 0.32440653 1.7540001 4279575096
0.30951929 0.32607111 1.7630001 4279575344
0.31282964 0.32607111 1.7630001 4279509800
