# .PCD v0.7 - Point Cloud Data file format
VERSION 0.7
FIELDS x y z rgba
SIZE 4 4 4 4
TYPE F F F U
COUNT 1 1 1 1
WIDTH 1109
HEIGHT 1
VIEWPOINT 0 0 0 1 0 0 0
POINTS 1109
DATA ascii
0.44393367 0.32983023 1.899 4282460428
0.44749939 0.32983023 1.899 4282853646
0.45106512 0.32983023 1.899 4283050511
0.45199743 0.32791969 1.8880001 4283310103
0.4555425 0.32791969 1.8880001 4283046431
1.017042 0.33538821 1.9310001 4282069305
1.0206679 0.33538821 1.9310001 4282068280
1.0242937 0.33538821 1.9310001 4282001976
1.0279195 0.33538821 1.9310001 4282001971
1.0315453 0.33538821 1.9310001 4281936174
1.0351712 0.33538821 1.9310001 4281871154
1.0328794 0.33347765 1.9200001 4281805366
1.0305464 0.33156711 1.909 4281805621
1.0341309 0.33156711 1.909 4281805877
1.0377154 0.33156711 1.909 4281804583
1.0358452 0.32983023 1.899 4281804569
1.0394109 0.32983023 1.899 4281871140
1.0429767 0.32983023 1.899 4281935664
1.0404804 0.32791969 1.8880001 4282001957
1.0440254 0.32791969 1.8880001 4281669913
1.0420219 0.32618284 1.8780001 4281411619
1.0455482 0.32618284 1.8780001 4281674028
1.0434883 0.32444596 1.868 4281940007
1.0469959 0.32444596 1.868 4282463779
1.0448797 0.32270908 1.858 4282989606
1.0483685 0.32270908 1.858 4283185705
1.0518572 0.32270908 1.858 4283382317
1.0496659 0.32097223 1.848 4283183921
1.053136 0.32097223 1.848 4282990133
1.0566058 0.32097223 1.848 4283514169
1.0600759 0.32097223 1.848 4284106042
0.098894149 0.32444221 1.848 4279438081
0.10181019 0.32268658 1.8380001 4279242497
0.10526139 0.32268658 1.8380001 4279177729
0.10871259 0.32268658 1.8380001 4279112967
0.11216377 0.32268658 1.8380001 4279639054
0.11498595 0.3209309 1.8280001 4280164646
0.11841837 0.3209309 1.8280001 4279836734
0.12185078 0.3209309 1.8280001 4279442735
0.12466637 0.31935084 1.8190001 4279310113
0.12737776 0.31759521 1.8090001 4279178261
0.13077451 0.31759521 1.8090001 4279047434
0.13417125 0.31759521 1.8090001 4278981893
0.13756798 0.31759521 1.8090001 4279441665
0.14026341 0.31601512 1.8000001 4279967234
0.14364325 0.31601512 1.8000001 4279770883
0.14702308 0.31601512 1.8000001 4279641091
0.15040293 0.31601512 1.8000001 4279510020
0.15378277 0.31601512 1.8000001 4279443458
0.15628947 0.3142595 1.7900001 4279706625
0.15965055 0.3142595 1.7900001 4279970050
0.16301161 0.3142595 1.7900001 4279904260
0.16637267 0.3142595 1.7900001 4279838995
0.16888033 0.31267944 1.7810001 4280297250
0.17135419 0.31109935 1.7720001 4280755994
0.17468145 0.31109935 1.7720001 4280560147
0.17800871 0.31109935 1.7720001 4280364571
0.18133599 0.31109935 1.7720001 4280560676
0.18466324 0.31109935 1.7720001 4280756764
0.18799052 0.31109935 1.7720001 4280626452
0.19131778 0.31109935 1.7720001 4280562202
0.19365644 0.30951929 1.7630001 4280561441
0.19696681 0.30951929 1.7630001 4280561181
0.20027718 0.30951929 1.7630001 4280560921
0.20358755 0.30951929 1.7630001 4280626713
0.20689791 0.30951929 1.7630001 4280758042
0.21020828 0.30951929 1.7630001 4280954656
0.21351865 0.30951929 1.7630001 4280953895
0.2179359 0.31109935 1.7720001 4280887852
0.22126317 0.31109935 1.7720001 4280821809
0.22459044 0.31109935 1.7720001 4280755507
0.22907531 0.31267944 1.7810001 4280493110
0.23241948 0.31267944 1.7810001 4280231728
0.23695503 0.3142595 1.7900001 4279904554
0.24031609 0.3142595 1.7900001 4279512099
0.24367715 0.3142595 1.7900001 4279642141
0.24841832 0.31601512 1.8000001 4279772957
0.25179815 0.31601512 1.8000001 4279575581
0.255178 0.31601512 1.8000001 4279378718
0.25985062 0.31759521 1.8090001 4279179552
0.26324737 0.31759521 1.8090001 4279046675
0.26664412 0.31759521 1.8090001 4278914823
0.27153361 0.31935084 1.8190001 4278782724
0.27494913 0.31935084 1.8190001 4278783234
0.27836466 0.31935084 1.8190001 4278718723
0.28317437 0.3209309 1.8280001 4278521092
0.28817463 0.32268658 1.8380001 4278389762
0.29321247 0.32444221 1.848 4278323713
0.29989329 0.32795349 1.868 4278323457
0.30502501 0.32970914 1.8780001 4278323201
0.31019431 0.33146477 1.8880001 4278322946
0.31373939 0.33146477 1.8880001 4278454020
0.31728446 0.33146477 1.8880001 4278585349
0.31913024 0.32970914 1.8780001 4278651143
0.32265651 0.32970914 1.8780001 4278782980
0.32618284 0.32970914 1.8780001 4278783234
0.32970914 0.32970914 1.8780001 4278783497
0.33146101 0.32795349 1.868 4278848784
0.33496851 0.32795349 1.868 4278979594
0.33847606 0.32795349 1.868 4278848517
0.34198359 0.32795349 1.868 4278717452
0.34549108 0.32795349 1.868 4278848787
0.34899861 0.32795349 1.868 4278980106
0.35250616 0.32795349 1.868 4278979585
0.35601369 0.32795349 1.868 4278978587
0.35952118 0.32795349 1.868 4279373622
0.36302871 0.32795349 1.868 4279833913
0.36849844 0.32970914 1.8780001 4279834684
0.37004375 0.32795349 1.868 4279900718
0.37355128 0.32795349 1.868 4280098592
0.37907735 0.32970914 1.8780001 4280295459
0.38260365 0.32970914 1.8780001 4280230951
0.38612998 0.32970914 1.8780001 4280100910
0.38965625 0.32970914 1.8780001 4280035637
0.39318255 0.32970914 1.8780001 4280035628
0.39670885 0.32970914 1.8780001 4280166179
0.40023515 0.32970914 1.8780001 4280297251
0.40376148 0.32970914 1.8780001 4280231459
0.40728775 0.32970914 1.8780001 4280099878
0.41081405 0.32970914 1.8780001 4280296233
0.41654664 0.33146477 1.8880001 4280426799
0.42009172 0.33146477 1.8880001 4280493110
0.42363679 0.33146477 1.8880001 4280625457
0.42718187 0.33146477 1.8880001 4280363309
0.43072695 0.33146477 1.8880001 4280100641
0.43427202 0.33146477 1.8880001 4281018901
0.4378171 0.33146477 1.8880001 4281936654
0.44393367 0.33339596 1.899 4282395143
0.44749939 0.33339596 1.899 4282853644
0.45106512 0.33339596 1.899 4283048465
0.45463088 0.33339596 1.899 4283243043
0.45819658 0.33339596 1.899 4283114037
1.0206679 0.33901402 1.9310001 4282069041
1.0242937 0.33901402 1.9310001 4282002734
1.0332428 0.34076965 1.9410001 4282002730
1.0427636 0.34270087 1.9520001 4282002470
1.0464288 0.34270087 1.9520001 4282003245
1.0387969 0.33901402 1.9310001 4281871413
1.0424228 0.33901402 1.9310001 4281805105
1.0460485 0.33901402 1.9310001 4281673518
1.0496744 0.33901402 1.9310001 4281540631
1.0533001 0.33901402 1.9310001 4281607425
1.0569261 0.33901402 1.9310001 4281739540
1.0605519 0.33901402 1.9310001 4281739047
1.0520535 0.33515158 1.909 4281736743
1.0501081 0.33339596 1.899 4281474599
1.0475705 0.33146477 1.8880001 4281278250
1.0511156 0.33146477 1.8880001 4281411885
1.0434883 0.32795349 1.868 4281481757
1.0469959 0.32795349 1.868 4281545742
1.0448797 0.32619783 1.858 4281546759
1.0483685 0.32619783 1.858 4281742081
1.0518572 0.32619783 1.858 4281873684
1.0496659 0.32444221 1.848 4282003239
1.053136 0.32444221 1.848 4282137135
1.0566058 0.32444221 1.848 4282332727
1.0600759 0.32444221 1.848 4282597429
0.098894149 0.32791215 1.848 4279373066
0.10181019 0.32613775 1.8380001 4279177477
0.10526139 0.32613775 1.8380001 4278785537
0.10871259 0.32613775 1.8380001 4278457860
0.11216377 0.32613775 1.8380001 4278983688
0.11498595 0.32436332 1.8280001 4279574295
0.11841837 0.32436332 1.8280001 4279641895
0.12125085 0.32276636 1.8190001 4279704864
0.12466637 0.32276636 1.8190001 4279506970
0.12737776 0.32099196 1.8090001 4279310097
0.13077451 0.32099196 1.8090001 4278982665
0.13417125 0.32099196 1.8090001 4278720518
0.13756798 0.32099196 1.8090001 4279115267
0.14026341 0.31939498 1.8000001 4279574020
0.14364325 0.31939498 1.8000001 4279574534
0.14702308 0.31939498 1.8000001 4279575308
0.15040293 0.31939498 1.8000001 4279314194
0.15378277 0.31939498 1.8000001 4279050761
0.15716261 0.31939498 1.8000001 4279443457
0.16054244 0.31939498 1.8000001 4279903236
0.16301161 0.31762058 1.7900001 4279706119
0.16637267 0.31762058 1.7900001 4279575827
0.16888033 0.31602362 1.7810001 4280035871
0.17222449 0.31602362 1.7810001 4280560157
0.17468145 0.31442663 1.7720001 4280364059
0.17800871 0.31442663 1.7720001 4280167190
0.18133599 0.31442663 1.7720001 4280298514
0.18466324 0.31442663 1.7720001 4280429328
0.18799052 0.31442663 1.7720001 4280495373
0.19131778 0.31442663 1.7720001 4280561686
0.19365644 0.31282964 1.7630001 4280561951
0.19696681 0.31282964 1.7630001 4280626462
0.20027718 0.31282964 1.7630001 4280560668
0.20358755 0.31282964 1.7630001 4280560405
0.20795411 0.31442663 1.7720001 4280691981
0.21128137 0.31442663 1.7720001 4280822550
0.21460864 0.31442663 1.7720001 4280822048
0.2179359 0.31442663 1.7720001 4280887584
0.22126317 0.31442663 1.7720001 4280886816
0.22459044 0.31442663 1.7720001 4280887090
0.22907531 0.31602362 1.7810001 4280494149
0.23241948 0.31602362 1.7810001 4280166712
0.23695503 0.31762058 1.7900001 4279643180
0.24031609 0.31762058 1.7900001 4279118626
0.24367715 0.31762058 1.7900001 4279249944
0.24703822 0.31762058 1.7900001 4279379995
0.25179815 0.31939498 1.8000001 4279314461
0.255178 0.31939498 1.8000001 4279311898
0.25985062 0.32099196 1.8090001 4279112983
0.26324737 0.32099196 1.8090001 4278981390
0.26664412 0.32099196 1.8090001 4278915077
0.27153361 0.32276636 1.8190001 4278849283
0.27494913 0.32276636 1.8190001 4278716929
0.27974194 0.32436332 1.8280001 4278651919
0.28472346 0.32613775 1.8380001 4278520348
0.28817463 0.32613775 1.8380001 4278389777
0.29321247 0.32791215 1.848 4278324742
0.29828787 0.32968658 1.858 4278258179
0.30502501 0.33323544 1.8780001 4278258177
0.31019431 0.33500987 1.8880001 4278257410
0.31373939 0.33500987 1.8880001 4278323204
0.31728446 0.33500987 1.8880001 4278388484
0.31913024 0.33323544 1.8780001 4278519812
0.32265651 0.33323544 1.8780001 4278651651
0.32618284 0.33323544 1.8780001 4278783491
0.32970914 0.33323544 1.8780001 4278980105
0.33323544 0.33323544 1.8780001 4279045391
0.33496851 0.33146101 1.868 4279110928
0.33847606 0.33146101 1.868 4279046416
0.34198359 0.33146101 1.868 4278980368
0.34549108 0.33146101 1.868 4279046415
0.34899861 0.33146101 1.868 4279111433
0.35250616 0.33146101 1.868 4278848515
0.35601369 0.33146101 1.868 4278652180
0.36144584 0.33323544 1.8780001 4278915109
0.36497214 0.33323544 1.8780001 4279178277
0.36849844 0.33323544 1.8780001 4279439909
0.37004375 0.33146101 1.868 4279770143
0.37355128 0.33146101 1.868 4279837721
0.37907735 0.33323544 1.8780001 4279968544
0.38260365 0.33323544 1.8780001 4280034599
0.38612998 0.33323544 1.8780001 4280100903
0.38965625 0.33323544 1.8780001 4280036390
0.39318255 0.33323544 1.8780001 4280036131
0.39670885 0.33323544 1.8780001 4280232737
0.40023515 0.33323544 1.8780001 4280494113
0.40376148 0.33323544 1.8780001 4280297250
0.40728775 0.33323544 1.8780001 4280165409
0.41300157 0.33500987 1.8880001 4280296736
0.41654664 0.33500987 1.8880001 4280427303
0.42009172 0.33500987 1.8880001 4280492590
0.42363679 0.33500987 1.8880001 4280625452
0.42718187 0.33500987 1.8880001 4279971371
0.43072695 0.33500987 1.8880001 4279380774
0.43427202 0.33500987 1.8880001 4280560930
0.4378171 0.33500987 1.8880001 4281805846
0.44393367 0.33696169 1.899 4282329867
0.44749939 0.33696169 1.899 4282852113
0.4534404 0.33873609 1.909 4282981400
0.4570249 0.33873609 1.909 4283176473
0.46060941 0.33873609 1.909 4283240987
1.0417985 0.34849539 1.9640001 4282068784
1.0454862 0.34849539 1.9640001 4282068514
1.0491741 0.34849539 1.9640001 4282068500
1.0528618 0.34849539 1.9640001 4282134312
1.0500941 0.34636614 1.9520001 4282003004
1.0537593 0.34636614 1.9520001 4281871412
1.0574245 0.34636614 1.9520001 4281608493
1.0610899 0.34636614 1.9520001 4281345820
1.0647551 0.34636614 1.9520001 4281476875
1.0623995 0.34441426 1.9410001 4281608725
1.0660442 0.34441426 1.9410001 4281544480
1.0641778 0.34263983 1.9310001 4281476642
1.0678035 0.34263983 1.9310001 4281344548
1.0958431 0.35044727 1.9750001 4281213473
1.0572397 0.33696169 1.899 4281148447
1.0490745 0.33323544 1.8780001 4281084184
1.0469959 0.33146101 1.868 4280625169
1.0448797 0.32968658 1.858 4280167183
1.0483685 0.32968658 1.858 4280296974
1.046196 0.32791215 1.848 4280427803
1.0496659 0.32791215 1.848 4280818472
1.053136 0.32791215 1.848 4281280046
1.0566058 0.32791215 1.848 4281147700
1.0600759 0.32791215 1.848 4281086259
0.10181019 0.32958895 1.8380001 4279112714
0.10526139 0.32958895 1.8380001 4278850305
0.10871259 0.32958895 1.8380001 4278653185
0.11216377 0.32958895 1.8380001 4278981890
0.11498595 0.32779574 1.8280001 4279310601
0.11841837 0.32779574 1.8280001 4279704080
0.12125085 0.32618189 1.8190001 4280162833
0.12466637 0.32618189 1.8190001 4279834899
0.12737776 0.32438868 1.8090001 4279573261
0.13077451 0.32438868 1.8090001 4279244808
0.13417125 0.32438868 1.8090001 4278917126
0.13756798 0.32438868 1.8090001 4279245573
0.14096473 0.32438868 1.8090001 4279639303
0.14364325 0.32277483 1.8000001 4279640073
0.14702308 0.32277483 1.8000001 4279706132
0.15040293 0.32277483 1.8000001 4279509280
0.15378277 0.32277483 1.8000001 4279378448
0.15716261 0.32277483 1.8000001 4279705601
0.16054244 0.32277483 1.8000001 4280100614
0.16392229 0.32277483 1.8000001 4279968779
0.16637267 0.32098162 1.7900001 4279836691
0.16888033 0.31936777 1.7810001 4280296732
0.17222449 0.31936777 1.7810001 4280822559
0.17556867 0.31936777 1.7810001 4280428835
0.17800871 0.31775388 1.7720001 4280035602
0.18133599 0.31775388 1.7720001 4280232449
0.18466324 0.31775388 1.7720001 4280429572
0.18799052 0.31775388 1.7720001 4280560903
0.19131778 0.31775388 1.7720001 4280693266
0.19464505 0.31775388 1.7720001 4280692510
0.19696681 0.31614003 1.7630001 4280756767
0.20027718 0.31614003 1.7630001 4280429088
0.20462684 0.31775388 1.7720001 4280166160
0.20795411 0.31775388 1.7720001 4280559361
0.21128137 0.31775388 1.7720001 4280953101
0.21460864 0.31775388 1.7720001 4280887833
0.2179359 0.31775388 1.7720001 4280888596
0.22126317 0.31775388 1.7720001 4280756751
0.22459044 0.31775388 1.7720001 4280691250
0.22907531 0.31936777 1.7810001 4280363605
0.23241948 0.31936777 1.7810001 4280101953
0.23576364 0.31936777 1.7810001 4279707950
0.24031609 0.32098162 1.7900001 4279380257
0.24367715 0.32098162 1.7900001 4279379988
0.24703822 0.32098162 1.7900001 4279314201
0.25179815 0.32277483 1.8000001 4279377950
0.255178 0.32277483 1.8000001 4279441430
0.25985062 0.32438868 1.8090001 4279244815
0.26324737 0.32438868 1.8090001 4279113225
0.26664412 0.32438868 1.8090001 4279047684
0.27153361 0.32618189 1.8190001 4278982914
0.27494913 0.32618189 1.8190001 4279046401
0.27974194 0.32779574 1.8280001 4279110683
0.28472346 0.32958895 1.8380001 4278717237
0.28817463 0.32958895 1.8380001 4278389792
0.29321247 0.33138216 1.848 4278323723
0.29828787 0.33317536 1.858 4278323206
0.30502501 0.33676174 1.8780001 4278257409
0.31019431 0.33855495 1.8880001 4278257154
0.31373939 0.33855495 1.8880001 4278322692
0.31728446 0.33855495 1.8880001 4278388482
0.31913024 0.33676174 1.8780001 4278519553
0.32265651 0.33676174 1.8780001 4278651651
0.32618284 0.33676174 1.8780001 4278782981
0.32970914 0.33676174 1.8780001 4278980874
0.33323544 0.33676174 1.8780001 4279111439
0.33496851 0.33496851 1.868 4279242005
0.33847606 0.33496851 1.868 4279176732
0.34198359 0.33496851 1.868 4279111444
0.34549108 0.33496851 1.868 4279177484
0.34899861 0.33496851 1.868 4279243784
0.35250616 0.33496851 1.868 4279046405
0.35601369 0.33496851 1.868 4278915085
0.36144584 0.33676174 1.8780001 4279046677
0.36497214 0.33676174 1.8780001 4279179537
0.36849844 0.33676174 1.8780001 4279376142
0.37202474 0.33676174 1.8780001 4279640592
0.37555104 0.33676174 1.8780001 4279706130
0.37907735 0.33676174 1.8780001 4279772701
0.38260365 0.33676174 1.8780001 4279837992
0.38612998 0.33676174 1.8780001 4279970080
0.38965625 0.33676174 1.8780001 4279970584
0.39318255 0.33676174 1.8780001 4280036635
0.39670885 0.33676174 1.8780001 4280035871
0.40023515 0.33676174 1.8780001 4280100640
0.40376148 0.33676174 1.8780001 4280165410
0.40728775 0.33676174 1.8780001 4280296220
0.41300157 0.33855495 1.8880001 4280362007
0.41654664 0.33855495 1.8880001 4280493854
0.42009172 0.33855495 1.8880001 4280559654
0.42363679 0.33855495 1.8880001 4280625959
0.42718187 0.33855495 1.8880001 4280364073
0.43072695 0.33855495 1.8880001 4280102188
0.43680218 0.34052745 1.899 4281019184
0.44036794 0.34052745 1.899 4281937183
0.44393367 0.34052745 1.899 4282394383
0.44985589 0.34232062 1.909 4282785303
0.4534404 0.34232062 1.909 4282980896
0.45965835 0.34429312 1.9200001 4283240720
0.46326354 0.34429312 1.9200001 4283176705
1.0571973 0.35612822 1.9860001 4282265370
1.0550503 0.35415572 1.9750001 4282396418
1.0528618 0.35218319 1.9640001 4282528034
1.0565495 0.35218319 1.9640001 4282200131
1.0537593 0.35003138 1.9520001 4281873207
1.0574245 0.35003138 1.9520001 4281675564
1.0610899 0.35003138 1.9520001 4281478688
1.0647551 0.35003138 1.9520001 4281477653
1.0684204 0.35003138 1.9520001 4281542935
1.0720856 0.35003138 1.9520001 4281543194
1.0757508 0.35003138 1.9520001 4281608478
1.0860518 0.35218319 1.9640001 4281476130
1.0897397 0.35218319 1.9640001 4281345049
1.0934274 0.35218319 1.9640001 4281213713
1.10326 0.35415572 1.9750001 4281081875
1.041391 0.33317536 1.858 4281082389
1.0448797 0.33317536 1.858 4281083416
1.0483685 0.33317536 1.858 4280886043
1.046196 0.33138216 1.848 4280754466
1.0496659 0.33138216 1.848 4281017129
1.053136 0.33138216 1.848 4281213741
1.0566058 0.33138216 1.848 4281149489
1.0658122 0.33317536 1.858 4281151281
0.10181019 0.33304015 1.8380001 4279045639
0.10526139 0.33304015 1.8380001 4278915330
0.10871259 0.33304015 1.8380001 4278849538
0.11216377 0.33304015 1.8380001 4278980866
0.11498595 0.33122817 1.8280001 4279111942
0.11841837 0.33122817 1.8280001 4279832330
0.12125085 0.32959741 1.8190001 4280619801
0.12466637 0.32959741 1.8190001 4280227625
0.12737776 0.32778543 1.8090001 4279834653
0.13077451 0.32778543 1.8090001 4279440914
0.13417125 0.32778543 1.8090001 4279113230
0.13756798 0.32778543 1.8090001 4279376395
0.14096473 0.32778543 1.8090001 4279705100
0.14364325 0.32615468 1.8000001 4279771918
0.14702308 0.32615468 1.8000001 4279901715
0.15040293 0.32615468 1.8000001 4279769880
0.15378277 0.32615468 1.8000001 4279704590
0.15716261 0.32615468 1.8000001 4279966212
0.16054244 0.32615468 1.8000001 4280296197
0.16392229 0.32615468 1.8000001 4280166151
0.16637267 0.32434267 1.7900001 4280099600
0.16888033 0.32271194 1.7810001 4280623384
0.17222449 0.32271194 1.7810001 4281149223
0.17556867 0.32271194 1.7810001 4280493878
0.17800871 0.32108113 1.7720001 4279904293
0.18133599 0.32108113 1.7720001 4280166164
0.18466324 0.32108113 1.7720001 4280429075
0.18799052 0.32108113 1.7720001 4280626194
0.19131778 0.32108113 1.7720001 4280889370
0.19464505 0.32108113 1.7720001 4280889378
0.19696681 0.31945038 1.7630001 4280888867
0.20027718 0.31945038 1.7630001 4280364069
0.20462684 0.32108113 1.7720001 4279838491
0.20795411 0.32108113 1.7720001 4280426769
0.21128137 0.32108113 1.7720001 4281083417
0.21460864 0.32108113 1.7720001 4280953121
0.2179359 0.32108113 1.7720001 4280888349
0.22126317 0.32108113 1.7720001 4280691994
0.22459044 0.32108113 1.7720001 4280495152
0.2279177 0.32108113 1.7720001 4280233030
0.23124497 0.32108113 1.7720001 4280035640
0.23576364 0.32271194 1.7810001 4279837994
0.2391078 0.32271194 1.7810001 4279707422
0.24245197 0.32271194 1.7810001 4279510290
0.24703822 0.32434267 1.7900001 4279312919
0.25179815 0.32615468 1.8000001 4279442203
0.255178 0.32615468 1.8000001 4279574036
0.25985062 0.32778543 1.8090001 4279442958
0.26324737 0.32778543 1.8090001 4279310861
0.26664412 0.32778543 1.8090001 4279245324
0.27153361 0.32959741 1.8190001 4279178761
0.27494913 0.32959741 1.8190001 4279375621
0.27974194 0.33122817 1.8280001 4279570193
0.28472346 0.33304015 1.8380001 4278979869
0.28817463 0.33304015 1.8380001 4278389009
0.29321247 0.3348521 1.848 4278388486
0.29828787 0.33666408 1.858 4278388483
0.30340081 0.33847606 1.868 4278322945
0.30855134 0.34028804 1.8780001 4278322437
0.31373939 0.34210002 1.8880001 4278387722
0.31728446 0.34210002 1.8880001 4278453509
0.31913024 0.34028804 1.8780001 4278519041
0.32265651 0.34028804 1.8780001 4278650629
0.32618284 0.34028804 1.8780001 4278782217
0.32970914 0.34028804 1.8780001 4278980362
0.33323544 0.34028804 1.8780001 4279177740
0.33676174 0.34028804 1.8780001 4279373329
0.33847606 0.33847606 1.868 4279307542
0.34198359 0.33847606 1.868 4279242521
0.34734064 0.34028804 1.8780001 4279308829
0.35086694 0.34028804 1.8780001 4279374867
0.35439324 0.34028804 1.8780001 4279309578
0.35791954 0.34028804 1.8780001 4279243789
0.36144584 0.34028804 1.8780001 4279177744
0.36497214 0.34028804 1.8780001 4279178764
0.36849844 0.34028804 1.8780001 4279310855
0.37202474 0.34028804 1.8780001 4279507979
0.37555104 0.34028804 1.8780001 4279508751
0.37907735 0.34028804 1.8780001 4279575058
0.38260365 0.34028804 1.8780001 4279706134
0.38612998 0.34028804 1.8780001 4279838737
0.38965625 0.34028804 1.8780001 4279905036
0.39318255 0.34028804 1.8780001 4280036117
0.39670885 0.34028804 1.8780001 4279905310
0.40023515 0.34028804 1.8780001 4279772457
0.40376148 0.34028804 1.8780001 4280098868
0.40728775 0.34028804 1.8780001 4280427051
0.41300157 0.34210002 1.8880001 4280492834
0.41654664 0.34210002 1.8880001 4280625188
0.42009172 0.34210002 1.8880001 4280626215
0.42363679 0.34210002 1.8880001 4280626212
0.42718187 0.34210002 1.8880001 4280757537
0.43323645 0.34409317 1.899 4280888105
0.43680218 0.34409317 1.899 4281476913
0.44036794 0.34409317 1.899 4282132508
0.44627139 0.34590513 1.909 4282459656
0.44985589 0.34590513 1.909 4282785552
0.4534404 0.34590513 1.909 4283047192
0.45965835 0.3478983 1.9200001 4283308560
0.46326354 0.3478983 1.9200001 4283112968
1.0528618 0.35587099 1.9640001 4282920489
1.0565495 0.35587099 1.9640001 4282396476
1.0602374 0.35587099 1.9640001 4281872692
1.0639251 0.35587099 1.9640001 4281742380
1.0676129 0.35587099 1.9640001 4281609756
1.0713007 0.35587099 1.9640001 4281543180
1.0749885 0.35587099 1.9640001 4281477649
1.0786762 0.35587099 1.9640001 4281608470
1.0823641 0.35587099 1.9640001 4281738521
1.0860518 0.35587099 1.9640001 4281606428
1.0897397 0.35587099 1.9640001 4281541656
1.0995514 0.35786414 1.9750001 4281345301
1.10326 0.35786414 1.9750001 4281147410
1.100803 0.35587099 1.9640001 4281539855
1.0617509 0.34210002 1.8880001 4281999635
1.042726 0.3348521 1.848 4281540887
1.046196 0.3348521 1.848 4281148951
1.0496659 0.3348521 1.848 4281150742
1.053136 0.3348521 1.848 4281215516
0.10181019 0.33649132 1.8380001 4278913540
0.10526139 0.33649132 1.8380001 4278848771
0.10871259 0.33649132 1.8380001 4278718211
0.11155353 0.33466059 1.8280001 4278848771
0.11498595 0.33466059 1.8280001 4278979332
0.11783534 0.33301291 1.8190001 4279307269
0.12125085 0.33301291 1.8190001 4279701282
0.12466637 0.33301291 1.8190001 4279702335
0.12808189 0.33301291 1.8190001 4279638061
0.13149741 0.33301291 1.8190001 4279441180
0.13491292 0.33301291 1.8190001 4279309078
0.13756798 0.33118218 1.8090001 4279441937
0.14096473 0.33118218 1.8090001 4279574546
0.14436147 0.33118218 1.8090001 4279573780
0.1477582 0.33118218 1.8090001 4279507218
0.15115494 0.33118218 1.8090001 4279507216
0.15378277 0.3295345 1.8000001 4279573003
0.15716261 0.3295345 1.8000001 4279835655
0.16054244 0.3295345 1.8000001 4280166149
0.16392229 0.3295345 1.8000001 4280034564
0.16730213 0.3295345 1.8000001 4279903244
0.16973373 0.32770374 1.7900001 4280362261
0.17222449 0.32605609 1.7810001 4280822319
0.17556867 0.32605609 1.7810001 4280494410
0.17891283 0.32605609 1.7810001 4280232504
0.18133599 0.32440841 1.7720001 4280494375
0.18466324 0.32440841 1.7720001 4280756514
0.18799052 0.32440841 1.7720001 4280822814
0.19131778 0.32440841 1.7720001 4280889890
0.19464505 0.32440841 1.7720001 4281085990
0.19797231 0.32440841 1.7720001 4281283112
0.20129958 0.32440841 1.7720001 4280757290
0.20462684 0.32440841 1.7720001 4280298021
0.20795411 0.32440841 1.7720001 4280559137
0.21128137 0.32440841 1.7720001 4280887077
0.21460864 0.32440841 1.7720001 4280756777
0.2179359 0.32440841 1.7720001 4280692263
0.22126317 0.32440841 1.7720001 4280560934
0.22459044 0.32440841 1.7720001 4280429871
0.2279177 0.32440841 1.7720001 4280232760
0.23124497 0.32440841 1.7720001 4279970351
0.23457223 0.32440841 1.7720001 4280035367
0.2391078 0.32605609 1.7810001 4280035868
0.24245197 0.32605609 1.7810001 4279837713
0.24703822 0.32770374 1.7900001 4279640341
0.25179815 0.3295345 1.8000001 4279509017
0.255178 0.3295345 1.8000001 4279445267
0.25985062 0.33118218 1.8090001 4279377677
0.26324737 0.33118218 1.8090001 4279245585
0.26664412 0.33118218 1.8090001 4279113237
0.27153361 0.33301291 1.8190001 4278980879
0.27494913 0.33301291 1.8190001 4279046154
0.27974194 0.33466059 1.8280001 4279176711
0.28472346 0.33649132 1.8380001 4278717189
0.28817463 0.33649132 1.8380001 4278322947
0.29321247 0.3383221 1.848 4278322690
0.29828787 0.34015283 1.858 4278323201
0.30340081 0.34198359 1.868 4278322689
0.30855134 0.34381434 1.8780001 4278322184
0.31373939 0.3456451 1.8880001 4278387728
0.31728446 0.3456451 1.8880001 4278454024
0.32082954 0.3456451 1.8880001 4278519041
0.32265651 0.34381434 1.8780001 4278584839
0.32618284 0.34381434 1.8780001 4278651406
0.32970914 0.34381434 1.8780001 4278784523
0.33323544 0.34381434 1.8780001 4278980361
0.33676174 0.34381434 1.8780001 4279241997
0.34028804 0.34381434 1.8780001 4279176721
0.34381434 0.34381434 1.8780001 4279177503
0.34734064 0.34381434 1.8780001 4279243822
0.35086694 0.34381434 1.8780001 4279375902
0.35439324 0.34381434 1.8780001 4279441423
0.35791954 0.34381434 1.8780001 4279573005
0.36144584 0.34381434 1.8780001 4279703052
0.36497214 0.34381434 1.8780001 4279898886
0.36849844 0.34381434 1.8780001 4279637761
0.37202474 0.34381434 1.8780001 4279375622
0.37555104 0.34381434 1.8780001 4279376908
0.37907735 0.34381434 1.8780001 4279443976
0.38260365 0.34381434 1.8780001 4279576068
0.38612998 0.34381434 1.8780001 4279773698
0.38965625 0.34381434 1.8780001 4279904769
0.39318255 0.34381434 1.8780001 4280036111
0.39670885 0.34381434 1.8780001 4280035101
0.40023515 0.34381434 1.8780001 4280099122
0.40591139 0.3456451 1.8880001 4280296263
0.40945649 0.3456451 1.8880001 4280558650
0.41300157 0.3456451 1.8880001 4280558893
0.41654664 0.3456451 1.8880001 4280560171
0.42009172 0.3456451 1.8880001 4280494889
0.42363679 0.3456451 1.8880001 4280495137
0.42718187 0.3456451 1.8880001 4280691993
0.43323645 0.3476589 1.899 4280954149
0.43680218 0.3476589 1.899 4281477426
0.44036794 0.3476589 1.899 4282001177
0.44627139 0.34948963 1.909 4282393345
0.44985589 0.34948963 1.909 4282850824
0.4560532 0.35150346 1.9200001 4283047696
0.45965835 0.35150346 1.9200001 4283243536
0.46326354 0.35150346 1.9200001 4283178768
1.0609264 0.3635864 1.9860001 4282395437
1.0528618 0.35955876 1.9640001 4282592049
1.0565495 0.35955876 1.9640001 4282133813
1.0602374 0.35955876 1.9640001 4281741105
1.0639251 0.35955876 1.9640001 4281478957
1.0676129 0.35955876 1.9640001 4281282328
1.0713007 0.35955876 1.9640001 4281347075
1.0749885 0.35955876 1.9640001 4281412874
1.0847178 0.36157259 1.9750001 4281607698
1.0884262 0.36157259 1.9750001 4281868564
1.0921346 0.36157259 1.9750001 4281672470
1.0958431 0.36157259 1.9750001 4281542935
1.0995514 0.36157259 1.9750001 4281280025
1.1094047 0.3635864 1.9860001 4281016337
1.1131338 0.3635864 1.9860001 4281344009
1.1106769 0.36157259 1.9750001 4281737742
1.0483685 0.34015283 1.858 4281410836
1.0518572 0.34015283 1.858 4281084940
0.10181019 0.33994251 1.8380001 4278848260
0.10526139 0.33994251 1.8380001 4278717444
0.10871259 0.33994251 1.8380001 4278652172
0.11155353 0.33809301 1.8280001 4278717461
0.11441983 0.33642843 1.8190001 4278848268
0.11783534 0.33642843 1.8190001 4278848003
0.12125085 0.33642843 1.8190001 4278848534
0.12466637 0.33642843 1.8190001 4279177257
0.12808189 0.33642843 1.8190001 4279506719
0.13149741 0.33642843 1.8190001 4279507733
0.13417125 0.3345789 1.8090001 4279507225
0.13756798 0.3345789 1.8090001 4279508509
0.14096473 0.3345789 1.8090001 4279507735
0.14436147 0.3345789 1.8090001 4279310609
0.1477582 0.3345789 1.8090001 4279179539
0.15115494 0.3345789 1.8090001 4279310101
0.15378277 0.33291432 1.8000001 4279441424
0.15716261 0.33291432 1.8000001 4279703307
0.16054244 0.33291432 1.8000001 4280033033
0.16392229 0.33291432 1.8000001 4279902984
0.16730213 0.33291432 1.8000001 4279772169
0.16973373 0.33106482 1.7900001 4280100619
0.17309481 0.33106482 1.7900001 4280494366
0.17556867 0.32940024 1.7810001 4280560178
0.17891283 0.32940024 1.7810001 4280625706
0.18133599 0.32773566 1.7720001 4280888098
0.18466324 0.32773566 1.7720001 4281149985
0.18799052 0.32773566 1.7720001 4281019169
0.19131778 0.32773566 1.7720001 4280954409
0.19464505 0.32773566 1.7720001 4281281842
0.19797231 0.32773566 1.7720001 4281674796
0.20129958 0.32773566 1.7720001 4281215783
0.20462684 0.32773566 1.7720001 4280756767
0.20795411 0.32773566 1.7720001 4280690967
0.21128137 0.32773566 1.7720001 4280690460
0.21460864 0.32773566 1.7720001 4280560161
0.2179359 0.32773566 1.7720001 4280495140
0.22126317 0.32773566 1.7720001 4280429607
0.22459044 0.32773566 1.7720001 4280429611
0.2279177 0.32773566 1.7720001 4280167216
0.23124497 0.32773566 1.7720001 4279970598
0.23457223 0.32773566 1.7720001 4280166684
0.2391078 0.32940024 1.7810001 4280427798
0.24245197 0.32940024 1.7810001 4280164625
0.24703822 0.33106482 1.7900001 4279967768
0.25179815 0.33291432 1.8000001 4279639838
0.255178 0.33291432 1.8000001 4279377942
0.25985062 0.3345789 1.8090001 4279311886
0.26324737 0.3345789 1.8090001 4279245073
0.26664412 0.3345789 1.8090001 4278981395
0.27153361 0.33642843 1.8190001 4278783500
0.27494913 0.33642843 1.8190001 4278782470
0.27974194 0.33809301 1.8280001 4278782470
0.28472346 0.33994251 1.8380001 4278520326
0.2897425 0.34179205 1.848 4278322948
0.29321247 0.34179205 1.848 4278322177
0.29828787 0.34364158 1.858 4278322689
0.30340081 0.34549108 1.868 4278322433
0.30855134 0.34734064 1.8780001 4278387460
0.31373939 0.34919018 1.8880001 4278387208
0.31728446 0.34919018 1.8880001 4278453252
0.32082954 0.34919018 1.8880001 4278453249
0.32265651 0.34734064 1.8780001 4278519310
0.32618284 0.34734064 1.8780001 4278585627
0.32970914 0.34734064 1.8780001 4278651920
0.33323544 0.34734064 1.8780001 4278848517
0.33496851 0.34549108 1.868 4279110663
0.33847606 0.34549108 1.868 4279111689
0.34198359 0.34549108 1.868 4279177746
0.34734064 0.34734064 1.8780001 4279244828
0.35086694 0.34734064 1.8780001 4279375637
0.35439324 0.34734064 1.8780001 4279638287
0.35791954 0.34734064 1.8780001 4279900438
0.36144584 0.34734064 1.8780001 4280228381
0.36497214 0.34734064 1.8780001 4280621072
0.36849844 0.34734064 1.8780001 4279965699
0.37202474 0.34734064 1.8780001 4279310600
0.37555104 0.34734064 1.8780001 4279310860
0.37907735 0.34734064 1.8780001 4279312143
0.38260365 0.34734064 1.8780001 4279512083
0.38612998 0.34734064 1.8780001 4279707677
0.38965625 0.34734064 1.8780001 4279904296
0.39318255 0.34734064 1.8780001 4280100388
0.39670885 0.34734064 1.8780001 4280230944
0.40023515 0.34734064 1.8780001 4280427821
0.40591139 0.34919018 1.8880001 4280559931
0.40945649 0.34919018 1.8880001 4280755753
0.41300157 0.34919018 1.8880001 4280624664
0.41654664 0.34919018 1.8880001 4280494366
0.42009172 0.34919018 1.8880001 4280429349
0.42363679 0.34919018 1.8880001 4280429851
0.42718187 0.34919018 1.8880001 4280692498
0.43323645 0.3512246 1.899 4281019163
0.43680218 0.3512246 1.899 4281411876
0.44268689 0.35307413 1.909 4281869587
0.44627139 0.35307413 1.909 4282393090
0.44985589 0.35307413 1.909 4282982921
0.4560532 0.35510865 1.9200001 4283114768
0.45965835 0.35510865 1.9200001 4283243280
1.0609264 0.36731547 1.9860001 4282198331
1.0528618 0.36324653 1.9640001 4282264121
1.0565495 0.36324653 1.9640001 4281936951
1.0602374 0.36324653 1.9640001 4281609012
1.0639251 0.36324653 1.9640001 4281281074
1.0676129 0.36324653 1.9640001 4280953635
1.0713007 0.36324653 1.9640001 4281149972
1.0810093 0.36528105 1.9750001 4281346071
1.0847178 0.36528105 1.9750001 4281671962
1.0884262 0.36528105 1.9750001 4281999388
1.0982174 0.36731547 1.9860001 4281738015
1.1019465 0.36731547 1.9860001 4281542185
1.1056755 0.36731547 1.9860001 4281215539
1.1094047 0.36731547 1.9860001 4280951836
1.1198596 0.36953491 1.9980001 4281213957
1.1236113 0.36953491 1.9980001 4281476107
1.127363 0.36953491 1.9980001 4281280273
0.098894149 0.34526202 1.848 4279634179
0.10236412 0.34526202 1.848 4278979588
0.10583409 0.34526202 1.848 4278782981
0.10930406 0.34526202 1.848 4278652438
0.11216377 0.34339374 1.8380001 4278717991
0.11498595 0.34152541 1.8280001 4278848532
0.11841837 0.34152541 1.8280001 4278782465
0.12125085 0.33984396 1.8190001 4278781706
0.12466637 0.33984396 1.8190001 4278980372
0.12808189 0.33984396 1.8190001 4279114257
0.13149741 0.33984396 1.8190001 4279245070
0.13491292 0.33984396 1.8190001 4279375899
0.13756798 0.33797565 1.8090001 4279704361
0.14096473 0.33797565 1.8090001 4280030491
0.14436147 0.33797565 1.8090001 4279441422
0.1477582 0.33797565 1.8090001 4278917908
0.15115494 0.33797565 1.8090001 4279245850
0.15378277 0.33629417 1.8000001 4279573269
0.15716261 0.33629417 1.8000001 4279900688
0.16054244 0.33629417 1.8000001 4280228622
0.16392229 0.33629417 1.8000001 4279836940
0.16730213 0.33629417 1.8000001 4279509766
0.16973373 0.3344259 1.7900001 4279969281
0.17309481 0.3344259 1.7900001 4280429070
0.17556867 0.33274442 1.7810001 4280494875
0.17891283 0.33274442 1.7810001 4280495132
0.18133599 0.33106294 1.7720001 4280757277
0.18466324 0.33106294 1.7720001 4281019168
0.18799052 0.33106294 1.7720001 4280954404
0.19131778 0.33106294 1.7720001 4280889137
0.19464505 0.33106294 1.7720001 4280757566
0.19797231 0.33106294 1.7720001 4280690481
0.20129958 0.33106294 1.7720001 4280625956
0.20462684 0.33106294 1.7720001 4280560152
0.20795411 0.33106294 1.7720001 4280559117
0.21128137 0.33106294 1.7720001 4280558867
0.21460864 0.33106294 1.7720001 4280559898
0.2179359 0.33106294 1.7720001 4280560673
0.22126317 0.33106294 1.7720001 4280429609
0.22459044 0.33106294 1.7720001 4280233000
0.2279177 0.33106294 1.7720001 4279840040
0.23124497 0.33106294 1.7720001 4279381532
0.23457223 0.33106294 1.7720001 4279773713
0.2378995 0.33106294 1.7720001 4280099345
0.24245197 0.33274442 1.7810001 4279968018
0.24703822 0.3344259 1.7900001 4279901979
0.25179815 0.33629417 1.8000001 4279705380
0.255178 0.33629417 1.8000001 4279574298
0.25985062 0.33797565 1.8090001 4279377168
0.26324737 0.33797565 1.8090001 4279179281
0.26664412 0.33797565 1.8090001 4278980626
0.27153361 0.33984396 1.8190001 4278782474
0.27494913 0.33984396 1.8190001 4278848002
0.28127226 0.34339374 1.8380001 4278847749
0.28472346 0.34339374 1.8380001 4278585608
0.2897425 0.34526202 1.848 4278323204
0.29321247 0.34526202 1.848 4278322945
0.29989329 0.34899861 1.868 4278322945
0.30502501 0.35086694 1.8780001 4278322433
0.31019431 0.35273525 1.8880001 4278387457
0.31373939 0.35273525 1.8880001 4278387457
0.31728446 0.35273525 1.8880001 4278452993
0.32082954 0.35273525 1.8880001 4278453505
0.32265651 0.35086694 1.8780001 4278454293
0.32618284 0.35086694 1.8780001 4278454825
0.32970914 0.35086694 1.8780001 4278455061
0.33323544 0.35086694 1.8780001 4278651393
0.33496851 0.34899861 1.868 4278848001
0.33847606 0.34899861 1.868 4278979841
0.34381434 0.35086694 1.8780001 4279177477
0.34734064 0.35086694 1.8780001 4279177994
0.35086694 0.35086694 1.8780001 4279244044
0.35439324 0.35086694 1.8780001 4279506959
0.35791954 0.35086694 1.8780001 4279834911
0.36144584 0.35086694 1.8780001 4279966767
0.36497214 0.35086694 1.8780001 4280163866
0.36849844 0.35086694 1.8780001 4279639046
0.37202474 0.35086694 1.8780001 4279114505
0.37555104 0.35086694 1.8780001 4279179533
0.37907735 0.35086694 1.8780001 4279310103
0.38260365 0.35086694 1.8780001 4279246882
0.38612998 0.35086694 1.8780001 4279181880
0.38965625 0.35086694 1.8780001 4279510095
0.39318255 0.35086694 1.8780001 4279836985
0.39670885 0.35086694 1.8780001 4279968803
0.40023515 0.35086694 1.8780001 4280165929
0.40591139 0.35273525 1.8880001 4280231727
0.40945649 0.35273525 1.8880001 4280362265
0.41300157 0.35273525 1.8880001 4280297220
0.41654664 0.35273525 1.8880001 4280232466
0.42009172 0.35273525 1.8880001 4280233249
0.42363679 0.35273525 1.8880001 4280299286
0.42967072 0.35479036 1.899 4280626444
0.43323645 0.35479036 1.899 4280887825
0.43680218 0.35479036 1.899 4281346070
0.44268689 0.35665867 1.909 4281803533
0.44627139 0.35665867 1.909 4282523652
0.45244804 0.35871381 1.9200001 4283245322
0.4560532 0.35871381 1.9200001 4283244305
0.46229184 0.36076891 1.9310001 4283308049
0.46591768 0.36076891 1.9310001 4283309842
1.0609264 0.37104458 1.9860001 4282133065
1.0587587 0.36898947 1.9750001 4282133057
1.0624671 0.36898947 1.9750001 4281805626
1.0661756 0.36898947 1.9750001 4281477688
1.0698841 0.36898947 1.9750001 4281019191
1.0735924 0.36898947 1.9750001 4280560174
1.0773009 0.36898947 1.9750001 4280887846
1.0810093 0.36898947 1.9750001 4281280548
1.0847178 0.36898947 1.9750001 4281606946
1.0884262 0.36898947 1.9750001 4281867813
1.0982174 0.37104458 1.9860001 4281671720
1.1019465 0.37104458 1.9860001 4281475642
1.1056755 0.37104458 1.9860001 4281279565
1.1161081 0.37328655 1.9980001 4281082919
1.1198596 0.37328655 1.9980001 4281213953
0.10291804 0.35061908 1.858 4279176194
0.10583409 0.34873199 1.848 4278914307
0.10930406 0.34873199 1.848 4278652683
0.11216377 0.34684491 1.8380001 4278719764
0.11498595 0.34495783 1.8280001 4278849034
0.11783534 0.34325948 1.8190001 4278782977
0.12125085 0.34325948 1.8190001 4278782469
0.12466637 0.34325948 1.8190001 4278782986
0.12808189 0.34325948 1.8190001 4278784777
0.13149741 0.34325948 1.8190001 4278982663
0.13491292 0.34325948 1.8190001 4279245326
0.13756798 0.34137243 1.8090001 4279902485
0.14096473 0.34137243 1.8090001 4280556050
0.14436147 0.34137243 1.8090001 4279638544
0.1477582 0.34137243 1.8090001 4278722078
0.15115494 0.34137243 1.8090001 4279248428
0.15378277 0.33967403 1.8000001 4279770914
0.15716261 0.33967403 1.8000001 4280098327
0.16054244 0.33967403 1.8000001 4280426267
0.16392229 0.33967403 1.8000001 4279837728
0.16730213 0.33967403 1.8000001 4279313174
0.16973373 0.33778694 1.7900001 4279837709
0.17309481 0.33778694 1.7900001 4280428567
0.17556867 0.33608857 1.7810001 4280429600
0.17891283 0.33608857 1.7810001 4280429597
0.182257 0.33608857 1.7810001 4280692250
0.18466324 0.33439022 1.7720001 4280954654
0.18799052 0.33439022 1.7720001 4280890658
0.19131778 0.33439022 1.7720001 4280824103
0.19464505 0.33439022 1.7720001 4280299820
0.19797231 0.33439022 1.7720001 4279774757
0.20129958 0.33439022 1.7720001 4280103454
0.20462684 0.33439022 1.7720001 4280429082
0.20795411 0.33439022 1.7720001 4280426517
0.21128137 0.33439022 1.7720001 4280428059
0.21460864 0.33439022 1.7720001 4280560673
0.2179359 0.33439022 1.7720001 4280691492
0.22126317 0.33439022 1.7720001 4280364071
0.22459044 0.33439022 1.7720001 4280101924
0.22907531 0.33608857 1.7810001 4279447328
0.23241948 0.33608857 1.7810001 4278856981
0.23576364 0.33608857 1.7810001 4279316234
0.24031609 0.33778694 1.7900001 4279838479
0.24367715 0.33778694 1.7900001 4279837973
0.24841832 0.33967403 1.8000001 4279836446
0.25179815 0.33967403 1.8000001 4279771686
0.255178 0.33967403 1.8000001 4279771420
0.25855786 0.33967403 1.8000001 4279443986
0.26324737 0.34137243 1.8090001 4279113232
0.26664412 0.34137243 1.8090001 4278980109
0.27153361 0.34325948 1.8190001 4278848775
0.27494913 0.34325948 1.8190001 4278914049
0.28127226 0.34684491 1.8380001 4278978819
0.28627253 0.34873199 1.848 4278651140
0.2897425 0.34873199 1.848 4278322947
0.29479912 0.35061908 1.858 4278323458
0.29989329 0.35250616 1.868 4278388225
0.30502501 0.35439324 1.8780001 4278387969
0.31019431 0.35628033 1.8880001 4278387969
0.31373939 0.35628033 1.8880001 4278454018
0.31728446 0.35628033 1.8880001 4278518786
0.32082954 0.35628033 1.8880001 4278453506
0.32265651 0.35439324 1.8780001 4278454288
0.32618284 0.35439324 1.8780001 4278324253
0.32970914 0.35439324 1.8780001 4278257936
0.33323544 0.35439324 1.8780001 4278388739
0.33676174 0.35439324 1.8780001 4278585346
0.34028804 0.35439324 1.8780001 4278848002
0.34381434 0.35439324 1.8780001 4279176197
0.34734064 0.35439324 1.8780001 4279176713
0.35086694 0.35439324 1.8780001 4279177995
0.35439324 0.35439324 1.8780001 4279441933
0.35791954 0.35439324 1.8780001 4279769625
0.36144584 0.35439324 1.8780001 4279705637
0.36497214 0.35439324 1.8780001 4279705109
0.36849844 0.35439324 1.8780001 4279312645
0.37202474 0.35439324 1.8780001 4278983688
0.37555104 0.35439324 1.8780001 4279114250
0.37907735 0.35439324 1.8780001 4279311121
0.38260365 0.35439324 1.8780001 4278983960
0.38612998 0.35439324 1.8780001 4278657828
0.38965625 0.35439324 1.8780001 4279117105
0.39318255 0.35439324 1.8780001 4279575585
0.39670885 0.35439324 1.8780001 4279772434
0.40236631 0.35628033 1.8880001 4279969577
0.40591139 0.35628033 1.8880001 4279970369
0.40945649 0.35628033 1.8880001 4279969837
0.41300157 0.35628033 1.8880001 4279970329
0.41654664 0.35628033 1.8880001 4279970847
0.42009172 0.35628033 1.8880001 4280103461
0.42610502 0.35835609 1.899 4280233758
0.42967072 0.35835609 1.899 4280495128
0.43323645 0.35835609 1.899 4280822293
0.43680218 0.35835609 1.899 4281281043
0.44523773 0.36231896 1.9200001 4281802506
0.44884288 0.36231896 1.9200001 4282652674
0.45244804 0.36231896 1.9200001 4283505671
0.4560532 0.36231896 1.9200001 4283440397
0.45965835 0.36231896 1.9200001 4283374608
0.46326354 0.36231896 1.9200001 4283375124
1.0609264 0.37477365 1.9860001 4282133316
1.0587587 0.37269792 1.9750001 4282067777
1.0624671 0.37269792 1.9750001 4281740607
1.0661756 0.37269792 1.9750001 4281412924
1.0698841 0.37269792 1.9750001 4280758073
1.0735924 0.37269792 1.9750001 4280167472
1.0773009 0.37269792 1.9750001 4280692519
1.0810093 0.37269792 1.9750001 4281281323
1.0847178 0.37269792 1.9750001 4281542702
1.0884262 0.37269792 1.9750001 4281802795
1.0982174 0.37477365 1.9860001 4281605929
1.1019465 0.37477365 1.9860001 4281475376
1.1056755 0.37477365 1.9860001 4281344567
1.1161081 0.37703818 1.9980001 4281213215
0.10347196 0.35601369 1.868 4279111169
0.10640679 0.35410783 1.858 4278848769
0.10930406 0.35220197 1.848 4278652417
0.11216377 0.35029611 1.8380001 4278718209
0.11498595 0.34839025 1.8280001 4278849025
0.11841837 0.34839025 1.8280001 4278848769
0.12125085 0.34667498 1.8190001 4278848001
0.12466637 0.34667498 1.8190001 4278716929
0.12808189 0.34667498 1.8190001 4278586881
0.13077451 0.34476915 1.8090001 4278850305
0.13417125 0.34476915 1.8090001 4279113473
0.13756798 0.34476915 1.8090001 4279572737
0.14096473 0.34476915 1.8090001 4280096777
0.14436147 0.34476915 1.8090001 4279572754
0.1477582 0.34476915 1.8090001 4279049512
0.15115494 0.34476915 1.8090001 4279312191
0.15378277 0.34305388 1.8000001 4279639599
0.15716261 0.34305388 1.8000001 4279836703
0.16054244 0.34305388 1.8000001 4279968297
0.16392229 0.34305388 1.8000001 4279837492
0.16730213 0.34305388 1.8000001 4279706407
0.17068197 0.34305388 1.8000001 4279969050
0.17309481 0.34114802 1.7900001 4280297760
0.17556867 0.33943275 1.7810001 4280363558
0.17891283 0.33943275 1.7810001 4280429598
0.182257 0.33943275 1.7810001 4280560919
0.18466324 0.33771747 1.7720001 4280692508
0.18799052 0.33771747 1.7720001 4280758305
0.19131778 0.33771747 1.7720001 4280823581
0.19464505 0.33771747 1.7720001 4280495898
0.19797231 0.33771747 1.7720001 4280103193
0.20129958 0.33771747 1.7720001 4280299033
0.20462684 0.33771747 1.7720001 4280429595
0.20795411 0.33771747 1.7720001 4280428318
0.21128137 0.33771747 1.7720001 4280428835
0.21460864 0.33771747 1.7720001 4280429096
0.2179359 0.33771747 1.7720001 4280429095
0.22126317 0.33771747 1.7720001 4280232742
0.22573113 0.33943275 1.7810001 4280101919
0.22907531 0.33943275 1.7810001 4280036377
0.23241948 0.33943275 1.7810001 4279970318
0.23576364 0.33943275 1.7810001 4279838979
0.24031609 0.34114802 1.7900001 4279707406
0.24367715 0.34114802 1.7900001 4279836697
0.24841832 0.34305388 1.8000001 4280031265
0.25179815 0.34305388 1.8000001 4279835689
0.255178 0.34305388 1.8000001 4279706143
0.25985062 0.34476915 1.8090001 4279442197
0.26324737 0.34476915 1.8090001 4279177487
0.26811808 0.34667498 1.8190001 4278980617
0.27153361 0.34667498 1.8190001 4278849797
0.27630952 0.34839025 1.8280001 4278783233
0.28127226 0.35029611 1.8380001 4278782209
0.28627253 0.35220197 1.848 4278519297
0.2897425 0.35220197 1.848 4278322178
0.29479912 0.35410783 1.858 4278453507
0.30149874 0.35791954 1.8780001 4278584066
0.30502501 0.35791954 1.8780001 4278518529
0.31019431 0.3598254 1.8880001 4278453506
0.31373939 0.3598254 1.8880001 4278453252
0.31728446 0.3598254 1.8880001 4278453252
0.32082954 0.3598254 1.8880001 4278453252
0.32437462 0.3598254 1.8880001 4278454027
0.32618284 0.35791954 1.8780001 4278388754
0.32970914 0.35791954 1.8780001 4278388491
0.33323544 0.35791954 1.8780001 4278454021
0.33676174 0.35791954 1.8780001 4278519556
0.34028804 0.35791954 1.8780001 4278716419
0.34381434 0.35791954 1.8780001 4278912774
0.34734064 0.35791954 1.8780001 4278782729
0.35086694 0.35791954 1.8780001 4278718474
0.35439324 0.35791954 1.8780001 4279046668
0.35791954 0.35791954 1.8780001 4279375379
0.36144584 0.35791954 1.8780001 4279441435
0.36497214 0.35791954 1.8780001 4279507216
0.36849844 0.35791954 1.8780001 4279376645
0.37202474 0.35791954 1.8780001 4279245318
0.37555104 0.35791954 1.8780001 4279573512
0.37907735 0.35791954 1.8780001 4279836171
0.38260365 0.35791954 1.8780001 4279509518
0.38612998 0.35791954 1.8780001 4279118096
0.38965625 0.35791954 1.8780001 4279379731
0.39527616 0.3598254 1.8880001 4279642122
0.39882123 0.3598254 1.8880001 4279771905
0.40236631 0.3598254 1.8880001 4279904042
0.40591139 0.3598254 1.8880001 4279839060
0.40945649 0.3598254 1.8880001 4279839041
0.41300157 0.3598254 1.8880001 4279839279
0.41654664 0.3598254 1.8880001 4279905580
0.42009172 0.3598254 1.8880001 4280037161
0.42610502 0.36192182 1.899 4280233766
0.42967072 0.36192182 1.899 4280495140
0.43551788 0.36382768 1.909 4280821786
0.43910238 0.36382768 1.909 4281279248
0.44523773 0.36592412 1.9200001 4281735432
0.44884288 0.36592412 1.9200001 4282325249
0.45244804 0.36592412 1.9200001 4282980613
0.4560532 0.36592412 1.9200001 4283047177
0.45965835 0.36592412 1.9200001 4283178255
0.46326354 0.36592412 1.9200001 4283244822
1.0550503 0.37640631 1.9750001 4282134848
1.0587587 0.37640631 1.9750001 4282068290
1.0624671 0.37640631 1.9750001 4281740868
1.0661756 0.37640631 1.9750001 4281478719
1.0698841 0.37640631 1.9750001 4281019451
1.0735924 0.37640631 1.9750001 4280625714
1.0773009 0.37640631 1.9750001 4280953897
1.0810093 0.37640631 1.9750001 4281347378
1.0847178 0.37640631 1.9750001 4281542203
1.0944883 0.37850276 1.9860001 4281801778
1.0982174 0.37850276 1.9860001 4281540394
1.1019465 0.37850276 1.9860001 4281344294
1.1123564 0.38078979 1.9980001 4281278242
1.1161081 0.38078979 1.9980001 4281212695
0.10583409 0.35567191 1.848 4278848513
0.10930406 0.35567191 1.848 4278652417
0.11216377 0.35374731 1.8380001 4278783489
0.11498595 0.35182267 1.8280001 4278915073
0.11841837 0.35182267 1.8280001 4278915329
0.12125085 0.3500905 1.8190001 4278914050
0.12466637 0.3500905 1.8190001 4278650627
